1.051,1.054,1.059,1.065,1.07,1.075,1.08,1.084,1.089,1.094,1.098,1.1,1.101,1.101,1.103,0,0,2.386,2.386,2.386,2.386,2.386,2.386,2.378,2.378,2.37,2.37,2.361,2.361,2.361,2.361,2.361,2.353,2.353,2.353,2.361,2.361,2.361,2.37,2.37,2.378,2.378,2.386,2.386,2.386,2.386,2.386,2.394,2.394,2.394,2.386,0,0,0,0,0,0,0,0,0,0,0,0,0,0,0.978,0.98,0.983,0.986,0.989,0.993,0.996,1,1.006,1.012,1.017,1.024,1.032,1.04,1.044,1.051,1.054,1.056,1.06,1.064,1.067,1.07,1.072,1.075,1.079,1.082,0,2.386,2.386,2.386,2.386,2.378,2.386,2.386,2.386,2.386,2.386,2.386,2.386,2.386,2.378,2.378,2.378,2.378,2.378,2.378,2.378,2.378,2.378,2.378,2.378,2.378,2.378,2.378,2.378,2.378,2.378,2.386,2.386,2.394,2.403,2.403,2.411,2.411,2.411,2.42,2.42,2.428,2.428,2.428,0,0,0,0,0,0,0,0,0,0,0,0,0,1.021,1.023,1.024,1.029,1.032,1.036,1.04,1.041,1.046,1.051,1.056,1.06,1.065,1.069,1.075,1.08,1.087,1.094,1.098,0,0,2.345,2.345,2.353,2.353,2.361,2.361,2.37,2.386,2.386,2.394,2.394,2.403,2.403,2.403,2.403,2.403,2.403,2.403,2.403,2.403,2.411,2.411,2.411,2.411,2.411,2.411,2.411,2.411,2.411,2.42,2.42,2.42,2.42,2.42,2.42,2.42,2.42,2.42,2.411,2.411,2.411,2.411,2.411,2.411,2.42,2.42,2.42,0,0,0,0,0,0,0,0,0,0,0,0,0,0,1.029,1.029,1.029,1.027,1.029,1.032,1.035,1.041,1.046,1.052,1.059,1.064,1.07,1.079,0,2.394,2.403,2.411,2.42,2.42,2.428,2.428,2.437,2.446,2.437,2.437,2.428,2.428,2.428,2.428,2.428,2.428,2.428,2.428,2.437,2.437,2.437,2.437,2.446,2.446,2.446,2.446,2.446,2.446,2.454,2.454,2.454,2.454,2.454,2.454,2.463,2.463,2.463,2.472,2.472,2.481,2.481,2.49,2.49,2.499,2.499,2.508,2.508,2.517,0,0,0,0,0,0,0,0,0,0,0,0,0,1.02,1.02,1.018,1.017,1.017,1.015,1.014,1.014,1.014,1.012,1.012,1.012,1.012,1.011,1.011,0,2.42,2.42,2.411,2.411,2.42,2.42,2.42,2.428,2.428,2.428,2.437,2.446,2.446,2.454,2.454,2.463,2.463,2.463,2.472,2.472,2.472,2.472,2.472,2.481,2.481,2.481,2.49,2.49,2.49,2.49,2.49,2.49,2.49,2.49,2.49,2.49,2.49,2.49,2.49,2.49,2.49,2.49,2.49,2.481,2.481,2.481,2.481,0,0,0,0,0,0,0,0,0,0,0,0,0,0,1.038,1.041,1.043,1.044,1.041,1.038,1.033,1.032,1.027,1.023,1.017,1.014,1.011,1.009,1.006,1.005,1.003,0.999,0.994,0.992,0,0,2.437,2.437,2.428,2.428,2.42,2.411,2.411,2.403,2.403,2.394,2.394,2.403,2.403,2.403,2.403,2.411,2.411,2.42,2.42,2.428,2.437,2.446,2.454,2.463,2.472,2.472,2.481,2.49,2.499,2.508,2.508,2.517,2.517,2.517,2.526,2.526,2.526,2.517,0,0,0,0,0,0,0,0,0,0,0,0,0,0,0,0,0,0,0,0,0,0,0,0.994,0.999,1.002,1.005,1.006,1.006,1.006,1.003,1,0.996,0.992,0.986,0.979,0.969,0,0,0,0,0,0,0,0,0,0.913,0.913,0,0,0,0,0,0,0,0,0,0,0,0,0,0,0,0,0,0.926,0.926,0.927,0.926,0.926,0.926,0.925,0.926,0.925,0.926,0.925,0.926,0.926,0.926,0.927,0.929,0.929,0.93,0.931,0.932,0.932,0.932,0.935,0.936,0.94,0.944,0.949,0.953,0.958,0.964,0.968,0.971,0.975,0.978,0.978,0.978,0.976,0.976,0.975,0.973,0.973,0.973,0.972,0.973,0.972,0.972,0.971
1.056,1.06,1.064,1.069,1.074,1.079,1.084,1.087,1.091,1.096,1.1,1.101,1.101,1.105,1.107,1.108,0,0,2.403,2.394,2.386,2.386,2.386,2.378,2.378,2.37,2.361,2.361,2.361,2.353,2.353,2.353,2.353,2.353,2.361,2.361,2.361,2.37,2.361,2.37,2.378,2.378,2.378,2.378,2.378,2.378,2.386,2.386,2.386,2.386,2.386,2.386,2.378,0,0,0,0,0,0,0,0,0,0,0,0,0,0,0,0,0.987,0.992,0.996,1,1.006,1.012,1.02,1.027,1.033,1.043,1.048,1.054,1.057,1.06,1.064,1.067,1.07,1.074,1.075,1.079,1.08,1.086,1.089,0,2.386,2.386,2.386,2.386,2.386,2.386,2.386,2.386,2.386,2.386,2.386,2.386,2.386,2.378,2.378,2.378,2.378,2.378,2.378,2.378,2.378,2.37,2.378,2.378,2.378,2.378,2.378,2.378,2.378,2.386,2.394,2.403,2.403,2.403,2.411,2.411,2.42,2.42,2.42,2.42,2.428,2.428,2.428,0,0,0,0,0,0,0,0,0,0,0,0,0,0,1.03,1.033,1.038,1.041,1.048,1.049,1.054,1.059,1.064,1.067,1.072,1.077,1.08,1.086,1.093,1.1,1.105,1.108,1.114,0,2.337,2.345,2.345,2.353,2.361,2.361,2.378,2.386,2.394,2.394,2.403,2.403,2.403,2.403,2.403,2.403,2.403,2.403,2.403,2.411,2.411,2.411,2.411,2.411,2.411,2.411,2.411,2.42,2.42,2.42,2.42,2.428,2.428,2.42,2.42,2.42,2.411,2.411,2.411,2.411,2.403,2.403,2.411,2.403,2.411,2.411,2.42,0,0,0,0,0,0,0,0,0,0,0,0,0,0,1.035,1.035,1.036,1.036,1.04,1.044,1.049,1.056,1.062,1.067,1.072,1.077,1.087,0,2.403,2.411,2.42,2.42,2.428,2.428,2.437,2.446,2.446,2.446,2.437,2.437,2.428,2.428,2.428,2.437,2.437,2.437,2.437,2.437,2.437,2.437,2.446,2.446,2.446,2.446,2.446,2.446,2.446,2.454,2.454,2.454,2.454,2.454,2.454,2.463,2.463,2.472,2.472,2.481,2.481,2.49,2.49,2.499,2.508,2.499,2.508,2.508,2.517,2.517,0,0,0,0,0,0,0,0,0,0,0,0,0,1.029,1.027,1.026,1.026,1.024,1.024,1.023,1.021,1.021,1.021,1.02,1.02,1.018,1.018,0,2.42,2.42,2.411,2.411,2.42,2.42,2.42,2.428,2.428,2.428,2.437,2.446,2.446,2.454,2.454,2.454,2.463,2.463,2.463,2.472,2.472,2.472,2.472,2.472,2.481,2.481,2.481,2.481,2.49,2.49,2.49,2.49,2.49,2.49,2.49,2.49,2.49,2.49,2.49,2.49,2.481,2.481,2.481,2.481,2.481,2.481,2.481,2.481,0,0,0,0,0,0,0,0,0,0,0,0,0,0,1.064,1.059,1.059,1.054,1.049,1.044,1.041,1.036,1.032,1.027,1.023,1.02,1.018,1.017,1.015,1.012,1.011,1.009,0,0,2.463,2.454,2.446,2.437,2.437,2.428,2.42,2.42,2.411,2.403,2.403,2.403,2.403,2.403,2.403,2.403,2.411,2.411,2.42,2.42,2.428,2.437,2.446,2.454,2.463,2.472,2.481,2.49,2.499,2.499,2.508,2.517,2.517,2.526,2.526,2.526,2.526,2.526,2.517,0,0,0,0,0,0,0,0,0,0,0,0,0,0,0,0,0,0,0,0,0,1.011,1.012,1.017,1.018,1.02,1.023,1.024,1.024,1.021,1.018,1.014,1.011,1.006,1,0.992,0.98,0,0,0,0,0,0,0,2.555,2.564,0,0,0,2.593,0,2.603,0,0,0,0,0,0,0,0,2.603,2.603,2.613,2.613,2.613,2.623,0,0,0,0.926,0.926,0,0.925,0.925,0,0,0,0,0,0,0,0,0,0,0.943,0.945,0.948,0.95,0.954,0.958,0.964,0.968,0.975,0.979,0.982,0.986,0.989,0.992,0.994,0.994,0.994,0.993,0.992,0.99,0.99,0.989,0.989,0.987,0.986,0.986,0.986,0.985
1.062,1.065,1.07,1.074,1.079,1.082,1.087,1.091,1.094,1.098,1.1,1.103,1.105,1.105,1.108,0,0,0,0,0,0,2.386,2.378,2.378,2.378,2.37,2.361,2.353,2.353,2.353,2.353,2.345,2.345,2.353,2.353,2.361,2.361,2.361,2.361,2.361,2.37,2.37,2.37,2.361,2.361,2.37,2.37,2.378,2.378,2.378,2.378,2.378,2.37,0,0,0,0,0,0,0,0,0,0,0,0,0,0,0,0,0,0.99,0.994,1,1.008,1.014,1.021,1.029,1.036,1.046,1.052,1.057,1.062,1.065,1.069,1.072,1.075,1.077,1.079,1.082,1.086,1.089,1.093,1.098,1.101,0,0,2.386,2.386,2.386,2.386,2.386,2.386,2.386,2.386,2.386,2.378,2.378,2.378,2.378,2.378,2.378,2.378,2.378,2.378,2.378,2.378,2.378,2.386,2.386,2.386,2.386,2.386,2.386,2.394,2.403,2.403,2.403,2.411,2.42,2.42,2.42,2.428,2.428,2.428,2.437,2.437,2.437,2.437,2.446,2.446,0,0,0,0,0,0,0,0,0,0,0,0,1.044,0,0,1.057,1.064,1.069,1.072,1.075,1.08,1.084,1.087,1.093,1.098,1.103,1.108,1.114,1.119,1.127,0,2.337,2.345,2.353,2.361,2.37,2.378,2.386,2.394,2.394,2.403,2.403,2.403,2.403,2.403,2.403,2.403,2.403,2.403,2.403,2.411,2.411,2.411,2.411,2.411,2.411,2.42,2.42,2.428,2.428,2.428,2.428,2.428,2.428,2.42,2.42,2.42,2.411,2.403,2.403,2.403,2.403,2.403,2.403,2.403,2.403,2.411,2.411,0,0,0,0,0,0,0,0,0,0,0,0,0,1.044,1.043,1.044,1.044,1.048,1.052,1.057,1.064,1.069,1.075,1.08,1.086,1.093,0,2.403,2.411,2.428,2.428,2.428,2.437,2.446,2.446,2.446,2.446,2.446,2.437,2.437,2.437,2.437,2.437,2.437,2.437,2.437,2.446,2.446,2.446,2.446,2.446,2.446,2.446,2.446,2.446,2.454,2.454,2.454,2.454,2.454,2.454,2.463,2.463,2.472,2.472,2.481,2.481,2.49,2.49,2.49,2.499,2.508,2.499,2.499,2.499,2.499,0,0,0,0,0,0,0,0,0,0,0,0,0,0,1.036,1.036,1.035,1.035,1.035,1.032,1.032,1.03,1.03,1.029,1.029,1.027,0,0,0,2.42,2.42,2.42,2.411,2.411,2.42,2.42,2.42,2.428,2.428,2.437,2.437,2.446,2.446,2.454,2.454,2.454,2.454,2.463,2.463,2.463,2.463,2.463,2.463,2.472,2.472,2.481,2.481,2.481,2.49,2.481,2.49,2.49,2.49,2.49,2.481,2.481,2.481,2.481,2.481,2.481,2.481,2.481,2.481,2.481,2.481,2.472,2.481,0,0,0,0,0,0,0,0,0,0,0,0,0,1.08,1.075,1.072,1.067,1.062,1.057,1.052,1.049,1.046,1.041,1.038,1.033,1.03,1.027,1.026,1.023,1.021,1.017,0,0,0,2.472,2.463,2.454,2.446,2.446,2.428,2.428,2.42,2.411,2.403,2.403,2.403,2.403,2.403,2.403,2.411,2.411,2.411,2.42,2.428,2.437,2.446,2.454,2.463,2.463,2.472,2.481,2.49,2.499,2.508,2.508,2.517,2.517,2.526,2.526,2.526,2.536,2.526,2.526,2.526,0,0,0,0,0,0,0,0,0,0,0,0,0,0,0,0,0,0,1.03,1.033,1.035,1.035,1.035,1.035,1.035,1.035,1.035,1.035,1.032,1.029,1.026,1.02,1.017,1.009,1.002,0.992,0,0,0,0,0,0,2.555,2.564,2.564,2.564,0,2.583,2.593,2.603,2.603,2.603,0,0,0,0,2.603,2.603,2.603,2.603,2.603,2.613,2.613,2.613,2.623,2.623,2.623,2.623,0,0,0,0,0,0,0,0,0,0,0,0,0,0,0,0,0,0,0.973,0.978,0.983,0.989,0.992,0.996,0.999,0,1.006,1.009,1.011,1.012,1.012,1.011,1.009,1.008,1.006,1.006,1.005,1.003,1.003,1.002,1,0.999,0.997
1.07,1.072,1.075,1.079,1.082,1.086,1.091,1.094,1.098,1.101,1.103,1.105,1.107,1.108,1.11,1.114,0,0,0,0,0,0,0,0,2.37,2.37,2.353,2.353,2.353,2.353,2.353,2.345,2.345,2.345,2.353,2.353,2.353,2.353,2.353,2.353,2.353,2.353,2.353,2.353,2.353,2.353,2.361,2.37,2.361,2.37,2.361,2.361,2.353,2.353,0,0,0,0,0,0,0,0,0,0,0,0,0,0,0,0,0,0.996,1.002,1.008,1.015,1.023,1.032,1.04,1.049,1.056,1.062,1.065,1.067,1.072,1.075,1.079,1.08,1.084,1.086,1.089,1.093,1.096,1.1,1.103,1.108,0,0,0,2.386,2.386,2.386,2.386,2.386,2.386,2.378,2.378,2.378,2.378,2.378,2.378,2.378,2.378,2.378,2.378,2.378,2.378,2.378,2.386,2.386,2.386,2.386,2.386,2.394,2.403,2.403,2.411,2.411,2.42,2.42,2.428,2.428,2.428,2.437,2.437,2.437,2.446,2.437,2.437,2.446,2.446,0,0,0,0,0,0,0,0,0,0,0,0,0,0,0,1.069,1.074,1.079,1.082,1.084,1.087,1.091,1.094,1.098,1.101,1.108,1.112,1.117,1.123,1.13,0,0,2.345,2.353,2.361,2.37,2.378,2.386,2.394,2.394,2.403,2.403,2.403,2.403,2.403,2.403,2.403,2.403,2.403,2.403,2.403,2.411,2.411,2.411,2.411,2.42,2.42,2.428,2.428,2.428,2.428,2.428,2.428,2.428,2.428,2.42,2.42,2.411,2.403,2.403,2.403,2.403,2.403,2.411,2.403,2.403,2.403,2.411,0,0,0,0,0,0,0,0,0,0,0,0,0,1.052,1.052,1.054,1.054,1.057,1.062,1.067,1.072,1.079,1.084,1.087,1.093,1.1,1.107,0,2.428,2.437,2.437,2.437,2.446,2.446,2.454,2.454,2.446,2.446,2.437,2.437,2.437,2.437,2.437,2.437,2.446,2.446,2.446,2.446,2.446,2.446,2.446,2.446,2.446,2.454,2.454,2.454,2.454,2.454,2.454,2.454,2.454,2.463,2.463,2.472,2.481,2.481,2.49,2.49,2.49,2.49,2.499,2.499,2.499,2.499,2.499,2.499,0,0,0,0,0,0,0,0,0,0,0,0,0,0,1.046,1.046,1.044,1.044,1.044,1.043,1.043,1.041,1.04,1.04,1.038,1.038,0,0,0,2.42,2.42,2.411,2.411,2.42,2.42,2.42,2.42,2.428,2.428,2.428,2.437,2.437,2.437,2.446,2.446,2.446,2.454,2.454,2.454,2.454,2.454,2.463,2.463,2.463,2.463,2.472,2.472,2.481,2.481,2.481,2.481,2.481,2.481,2.481,2.481,2.481,2.481,2.481,2.481,2.481,2.481,2.472,2.481,2.472,2.472,2.472,2.472,2.481,0,0,0,0,0,0,0,0,0,0,0,1.087,1.084,1.08,1.075,1.072,1.069,1.064,1.06,1.056,1.052,1.049,1.046,1.043,1.038,1.035,1.032,1.029,1.026,0,0,0,0,2.49,2.481,2.472,2.463,2.454,2.446,2.437,2.437,2.42,2.411,2.411,2.411,2.411,2.411,2.411,2.411,2.411,2.42,2.42,2.428,2.437,2.446,2.454,2.463,2.472,2.481,2.49,2.499,2.499,2.508,2.517,2.517,2.526,2.536,2.536,2.536,2.536,2.526,2.526,2.526,0,0,0,0,0,0,0,0,0,0,0,0,0,0,0,0,0,1.064,1.057,1.056,1.054,1.052,1.051,1.049,1.048,1.046,1.043,1.041,1.04,1.033,1.029,1.024,1.021,1.014,1.008,0,0,0,0,0,0,2.555,2.564,2.564,2.564,2.574,2.583,2.593,2.593,2.603,2.603,2.603,2.603,2.593,2.593,2.593,2.603,2.603,2.603,2.603,2.603,2.613,2.613,2.613,2.623,2.623,2.623,2.623,2.623,0,0,0,0,0,0,0,0,0,0,0,0,0,0,0,0,0,0,0,0,0,1.015,1.018,1.021,1.023,1.026,1.027,1.03,1.03,1.029,1.029,1.027,1.024,1.023,1.021,1.021,1.02,1.018,1.017,1.014,1.014,1.012
1.079,1.079,1.08,1.082,1.086,1.089,1.094,1.098,1.1,1.103,1.105,1.107,1.11,1.112,1.114,1.117,1.119,0,0,0,0,0,0,0,0,2.37,2.361,2.353,2.345,2.345,2.345,2.337,2.345,2.345,2.345,2.353,2.353,2.345,2.345,2.345,2.353,2.353,2.345,2.345,2.345,2.345,2.345,2.353,2.353,2.361,2.353,2.353,2.353,2.345,2.337,2.337,2.329,2.329,2.337,2.329,0,0,0,0,0,0,0,0,0,0,0,0,0,1.011,1.018,1.026,1.035,1.044,1.052,1.057,1.062,1.067,1.07,1.074,1.077,1.08,1.084,1.087,1.089,1.093,1.096,1.1,1.103,1.107,1.11,1.116,1.121,0,0,0,2.386,2.386,2.386,2.386,2.386,2.386,2.386,2.386,2.386,2.386,2.378,2.378,2.386,2.378,2.378,2.378,2.386,2.386,2.386,2.386,2.394,2.394,2.394,2.411,2.411,2.411,2.411,2.42,2.428,2.428,2.428,2.428,2.437,2.437,2.437,2.437,2.446,2.437,2.446,0,0,0,0,0,0,0,0,0,0,0,0,0,0,0,0,0,1.084,1.087,1.091,0,1.094,1.098,1.1,1.101,1.105,1.11,1.116,1.119,1.127,1.132,1.14,0,2.345,2.353,2.361,2.37,2.378,2.386,2.394,2.403,2.403,2.403,2.403,2.403,2.403,2.403,2.403,2.403,2.403,2.403,2.403,2.411,2.411,2.411,2.411,2.42,2.42,2.428,2.428,2.428,2.428,2.428,2.428,2.437,2.428,2.42,2.42,2.42,2.411,2.403,2.403,2.403,2.403,2.403,2.403,2.411,2.411,2.411,0,0,0,0,0,0,0,0,0,0,0,0,0,1.06,1.064,1.064,1.065,1.067,1.072,1.077,1.082,1.089,1.094,1.096,1.101,1.107,1.112,0,0,2.437,2.446,2.446,2.446,2.454,2.454,2.454,2.454,2.446,2.446,2.437,2.437,2.446,2.446,2.446,2.446,2.446,2.446,2.446,2.446,2.446,2.446,2.446,2.446,2.454,2.454,2.454,2.454,2.454,2.454,2.454,2.454,2.463,2.463,2.472,2.481,2.481,2.481,2.49,2.49,2.49,2.49,2.499,2.49,2.49,2.49,2.49,0,0,0,0,0,0,0,0,0,0,0,0,0,0,1.056,1.056,1.056,1.054,1.054,1.052,1.054,1.052,1.051,1.051,1.049,0,0,0,0,2.42,2.42,2.42,2.411,2.42,2.42,2.42,2.42,2.428,2.428,2.428,2.428,2.428,2.437,2.437,2.437,2.446,2.446,2.446,2.446,2.454,2.454,2.454,2.454,2.454,2.463,2.463,2.472,2.472,2.472,2.472,2.481,2.481,2.472,2.472,2.472,2.472,2.472,2.472,2.472,2.472,2.472,2.472,2.472,2.472,2.472,2.472,2.472,0,0,0,0,0,0,0,0,0,0,0,0,1.091,1.086,1.082,1.079,1.077,1.072,1.069,1.065,1.064,1.06,1.056,1.052,1.051,1.046,1.043,1.04,1.035,0,0,0,0,0,2.508,2.499,2.49,2.481,2.472,2.454,2.446,2.446,2.437,2.428,2.42,2.42,2.42,2.42,2.42,2.42,2.42,2.42,2.428,2.437,2.446,2.454,2.463,2.472,2.481,2.49,2.499,2.499,2.508,2.517,2.526,2.526,2.536,2.536,2.536,2.536,2.536,2.536,2.526,2.526,0,0,0,0,0,0,0,0,0,0,0,0,0,0,0,1.091,1.084,1.08,1.074,1.069,1.064,1.06,1.057,1.054,1.051,1.048,1.046,1.044,1.041,1.035,1.032,1.029,1.026,1.02,0,0,0.999,0,0,0,2.555,2.564,2.564,2.574,2.574,2.583,2.583,2.593,2.593,2.593,2.603,2.603,2.603,2.593,2.603,2.603,2.603,2.603,2.603,2.603,2.603,2.613,2.613,2.613,2.623,2.623,2.623,2.623,2.623,0,0,0,0,0,0,0,0,0,0,0,0,0,0,0,0,0,0,0,0,0,1.038,1.041,1.044,1.044,1.046,1.048,1.049,1.049,1.048,1.046,1.044,1.041,1.04,1.038,1.036,1.035,1.033,1.032,1.03,1.027,1.027
1.094,1.091,1.089,1.089,1.091,1.094,1.098,1.101,1.105,1.108,1.11,1.112,1.114,1.116,1.117,1.121,1.123,1.125,1.127,1.132,0,0,0,0,0,2.361,2.353,2.345,2.345,2.345,2.345,2.345,2.345,2.345,2.345,2.353,2.345,2.345,2.345,2.345,2.345,2.345,2.345,2.337,2.345,2.337,2.345,2.345,2.345,2.345,2.345,2.337,2.337,2.337,2.337,2.337,2.329,2.337,2.337,2.345,0,0,0,0,0,0,0,0,0,0,0,0,0,0,0,1.029,1.038,1.046,1.054,1.06,1.065,1.069,1.072,1.077,1.08,1.086,1.087,1.089,1.093,1.096,1.1,1.103,1.107,1.11,1.114,1.119,1.123,1.128,0,0,2.386,2.394,2.386,2.386,2.394,2.394,2.394,2.394,2.394,2.386,2.386,2.386,2.394,2.386,2.386,2.386,2.386,2.386,2.386,2.394,2.394,2.394,2.403,2.411,2.411,2.42,2.42,2.428,2.428,2.428,2.428,2.437,2.437,2.437,2.437,2.446,2.446,2.446,2.446,2.446,0,0,0,0,0,0,0,0,0,0,0,0,0,0,0,0,1.094,1.098,1.1,1.1,1.101,1.103,1.105,1.107,1.108,1.114,1.117,1.123,1.128,1.136,1.142,1.149,0,2.353,2.37,2.37,2.386,2.394,2.394,2.403,2.403,2.403,2.403,2.403,2.403,2.403,2.403,2.403,2.403,2.403,2.403,2.411,2.411,2.411,2.411,2.42,2.428,2.428,2.428,2.428,2.428,2.437,2.437,2.437,2.428,2.42,2.42,2.42,2.411,2.403,2.403,2.411,2.403,2.403,2.403,2.411,2.411,2.42,0,0,0,0,0,0,0,0,0,0,0,0,0,0,1.074,1.075,1.075,1.077,1.082,1.087,1.091,1.096,1.1,1.103,1.107,1.112,1.116,0,0,2.446,2.454,2.446,2.454,2.454,2.454,2.454,2.454,2.454,2.446,2.446,2.446,2.446,2.446,2.446,2.446,2.446,2.446,2.446,2.446,2.446,2.446,2.446,2.446,2.454,2.454,2.454,2.454,2.454,2.454,2.454,2.454,2.463,2.463,2.472,2.481,2.481,2.481,2.481,2.481,2.49,2.49,2.49,2.481,2.481,2.481,2.472,2.472,0,0,0,0,0,0,0,0,0,0,0,0,0,1.067,1.065,1.065,1.065,1.065,1.064,1.064,1.064,1.062,1.06,1.06,0,0,0,0,2.428,2.428,2.42,2.42,2.42,2.42,2.428,2.428,2.428,2.428,2.428,2.428,2.428,2.437,2.437,2.437,2.437,2.437,2.446,2.446,2.446,2.446,2.446,2.446,2.454,2.454,2.463,2.463,2.472,2.472,2.472,2.472,2.472,2.472,2.472,2.472,2.472,2.472,2.463,2.463,2.463,2.463,2.463,2.463,2.463,2.463,2.463,0,0,0,0,0,0,0,0,0,0,0,0,1.098,1.096,1.091,1.087,1.084,1.08,1.077,1.075,1.072,1.07,1.067,1.064,1.06,1.059,1.054,1.049,0,0,2.526,2.526,2.517,2.517,2.517,2.508,2.508,2.499,2.49,2.481,2.472,2.463,2.454,2.446,2.437,2.437,2.428,2.428,2.428,2.428,2.428,2.428,2.428,2.437,2.446,2.454,2.463,2.472,2.481,2.49,2.49,2.499,2.508,2.517,2.517,2.517,2.526,2.526,2.536,2.545,2.545,2.545,2.536,2.536,0,0,0,0,0,0,0,0,0,0,0,0,0,0,1.107,1.1,1.094,1.087,1.082,1.077,1.072,1.067,1.064,1.06,1.057,1.054,1.051,1.049,1.046,1.043,1.038,1.035,1.032,1.027,1.021,0,0,0,0,0,2.555,2.564,2.564,2.574,2.564,2.574,2.574,2.593,2.593,2.593,2.593,2.603,2.603,2.593,2.593,2.593,2.593,2.603,2.603,2.603,2.603,2.603,2.613,2.613,2.613,2.623,2.623,2.623,2.623,2.623,0,0,0,0,0,0,0,0,0,0,0,0,0,0,0,0,1.082,0,1.067,1.065,1.064,1.064,1.064,1.064,1.065,1.065,1.067,1.067,1.067,1.067,1.064,1.06,1.059,1.056,1.054,1.052,1.049,1.048,1.046,1.046,1.044,1.044
1.114,1.108,1.103,1.1,1.1,1.101,1.101,1.105,1.108,1.112,1.114,1.116,1.117,1.119,1.121,1.123,1.127,1.128,1.13,1.134,1.138,1.142,0,0,0,2.361,2.353,0,0,2.345,2.345,2.345,2.345,2.345,2.345,2.345,2.345,2.345,2.337,2.345,2.345,2.345,2.337,2.337,2.337,2.337,2.337,2.345,2.337,2.345,2.337,2.337,2.337,2.329,2.329,2.329,2.329,2.329,2.329,2.337,0,0,0,0,0,0,0,0,0,0,0,0,0,0,0,1.035,1.043,1.049,1.057,1.062,1.067,1.07,1.074,1.079,1.082,1.086,1.089,1.091,1.094,1.098,1.101,1.105,1.108,1.112,1.116,1.121,1.125,1.13,1.134,1.138,0,0,0,2.394,2.403,2.394,2.394,2.394,2.394,2.394,2.394,2.394,2.394,2.394,2.386,2.386,2.386,2.394,2.394,2.394,2.403,2.403,2.403,2.411,2.42,2.42,2.42,2.428,2.428,2.428,2.428,2.428,2.437,2.437,2.437,2.446,2.446,2.446,2.446,2.446,2.446,2.446,0,0,0,0,0,0,0,0,0,0,0,0,0,0,1.107,1.108,1.108,1.108,1.108,1.108,1.108,1.11,1.112,1.117,1.121,1.127,1.132,1.138,1.145,1.153,1.161,0,2.37,2.378,2.386,2.394,2.394,2.403,2.403,2.403,2.403,2.403,2.403,2.403,2.403,2.403,2.403,2.403,2.403,2.411,2.411,2.411,2.411,2.42,2.428,2.428,2.428,2.428,2.428,2.428,2.428,2.437,2.428,2.42,2.42,2.42,2.42,2.411,2.411,2.411,2.411,2.411,2.411,2.411,2.42,2.42,2.42,0,0,0,0,0,0,0,0,0,0,0,0,0,1.082,1.084,1.084,1.086,1.091,1.094,1.1,1.103,1.108,1.108,1.112,1.116,1.119,0,2.446,2.454,2.454,2.454,2.454,2.454,2.454,2.454,2.454,2.454,2.446,2.446,2.446,2.446,2.446,2.446,2.446,2.446,2.446,2.446,2.446,2.446,2.446,2.446,2.446,2.446,2.454,2.454,2.454,2.454,2.454,2.454,2.454,2.463,2.463,2.472,2.472,2.472,2.481,2.481,2.481,2.481,2.481,2.481,2.463,2.463,2.463,2.454,2.454,2.446,0,0,0,0,0,0,0,0,0,0,0,0,1.077,1.077,1.077,1.075,1.075,1.075,1.074,1.074,1.074,1.072,1.074,0,0,0,0,2.428,2.428,2.428,2.42,2.42,2.428,2.428,2.428,2.428,2.428,2.428,2.428,2.428,2.428,2.428,2.428,2.437,2.437,2.428,2.428,2.437,2.437,2.437,2.446,2.446,2.454,2.463,2.463,2.463,2.463,2.472,2.472,2.472,2.472,2.463,2.463,2.463,2.463,2.463,2.463,2.454,2.454,2.454,2.454,2.454,2.454,0,0,0,0,0,0,0,0,0,0,0,1.11,1.107,1.103,1.1,1.094,1.091,1.087,1.086,1.084,1.08,1.077,1.077,1.075,1.072,1.069,1.067,1.062,0,2.526,2.526,2.526,2.526,2.526,2.526,2.526,2.517,2.517,2.508,2.499,2.499,2.481,2.472,2.463,2.454,2.446,2.446,2.437,2.437,2.437,2.437,2.437,2.437,2.437,2.446,2.454,2.463,2.472,2.481,2.49,2.49,2.499,2.508,2.508,2.517,2.517,2.517,2.526,2.526,2.536,2.545,2.545,2.545,2.545,2.545,0,0,0,0,0,0,0,0,0,0,0,0,0,0,1.108,1.101,1.098,1.093,1.087,1.08,1.077,1.072,1.069,1.064,1.06,1.056,1.054,1.051,1.048,1.044,1.038,1.036,1.033,0,1.021,0,0,0,2.574,2.564,2.574,2.564,2.583,2.583,2.574,2.583,2.583,2.593,2.593,2.593,2.603,2.603,2.603,2.593,2.593,2.593,2.603,2.603,2.603,2.603,2.603,2.603,2.613,2.623,2.623,2.623,2.623,2.613,2.623,2.623,0,0,0,0,0,0,0,0,0,0,0,0,0,0,0,0,1.114,1.107,1.096,1.093,1.089,1.084,1.084,1.082,1.08,1.08,1.08,1.079,1.077,1.075,1.072,1.069,1.067,1.065,1.062,1.062,1.06,1.059,1.059,1.057,1.059,1.064
1.14,1.132,1.125,1.117,1.114,1.11,1.11,1.112,1.112,1.116,1.117,1.119,1.121,1.121,1.125,1.127,1.128,1.13,1.132,1.136,1.14,1.143,1.147,1.151,0,0,2.361,0,0,2.353,2.345,2.345,2.345,2.345,2.345,2.353,2.345,2.345,2.345,2.337,2.337,2.337,2.337,2.337,2.329,2.337,2.329,2.337,2.337,2.337,2.337,2.329,2.329,2.329,2.329,2.329,2.329,2.337,2.337,2.345,2.345,2.353,2.37,0,0,0,0,0,0,0,0,0,0,0,0,0,0,0,1.059,1.064,1.069,1.072,1.075,1.08,1.084,1.089,1.091,1.093,1.098,1.101,1.103,1.107,1.11,1.116,1.117,1.123,1.127,1.13,1.134,1.14,0,1.145,0,2.394,2.403,2.403,2.394,2.394,2.394,2.394,2.394,2.394,2.394,2.394,2.386,2.386,2.386,2.394,2.394,2.403,2.403,2.403,2.411,2.411,2.42,2.42,2.42,2.428,2.428,2.428,2.428,2.428,2.437,2.437,2.437,2.437,2.437,2.437,2.446,2.446,2.446,2.446,2.446,2.437,0,0,0,0,0,0,0,0,0,0,0,0,0,1.114,1.112,1.112,1.112,1.112,1.112,1.114,1.116,1.117,1.123,1.128,1.134,1.14,1.147,1.157,1.165,1.171,0,2.378,2.386,2.394,2.394,2.403,2.403,2.411,2.403,2.403,2.403,2.403,2.403,2.403,2.411,2.411,2.411,2.411,2.411,2.411,2.42,2.42,2.42,2.428,2.428,2.428,2.428,2.428,2.428,2.428,2.428,2.42,2.42,2.42,2.411,2.411,2.411,2.411,2.411,2.411,2.411,2.42,2.42,2.42,2.42,0,0,0,0,0,0,0,0,0,0,0,0,0,1.091,1.093,1.093,1.094,1.098,1.101,1.107,1.11,1.114,1.116,1.117,1.121,1.125,0,0,2.463,2.463,2.463,2.454,2.454,2.463,2.463,2.454,2.454,2.454,2.446,2.446,2.446,2.446,2.446,2.446,2.446,2.446,2.446,2.446,2.446,2.446,2.446,2.446,2.446,2.454,2.454,2.454,2.454,2.454,2.454,2.454,2.463,2.463,2.463,2.472,2.472,2.472,2.481,2.481,2.481,2.472,2.472,2.454,2.454,2.454,2.446,2.437,0,0,0,0,0,0,0,0,0,0,0,0,1.091,1.089,1.089,1.089,1.087,1.087,1.086,1.086,1.086,1.086,1.084,1.084,0,0,0,2.437,2.437,2.437,2.428,2.428,2.428,2.428,2.428,2.428,2.428,2.428,2.428,2.428,2.428,2.428,2.428,2.428,2.428,2.428,2.428,2.42,2.428,2.428,2.437,2.437,2.446,2.454,2.454,2.463,2.463,2.463,2.472,2.472,2.472,2.463,2.463,2.463,2.463,2.463,2.454,2.454,2.446,2.446,2.446,2.446,2.446,2.446,0,0,0,0,0,0,0,0,0,0,0,0,1.112,1.108,1.105,1.1,1.096,1.093,1.093,1.089,1.087,1.086,1.084,1.082,1.08,1.079,1.075,0,2.526,2.536,2.536,2.536,2.536,2.536,2.536,2.536,2.526,2.526,2.517,2.508,2.499,2.49,2.481,2.472,2.463,2.463,2.454,2.454,2.454,2.446,2.446,2.446,2.446,2.454,2.454,2.463,2.472,2.472,2.481,2.49,2.499,2.499,2.508,2.508,2.508,2.517,2.517,2.526,2.526,2.536,2.545,2.555,2.545,2.545,0,0,0,0,0,0,0,0,0,0,0,1.134,1.128,1.123,1.117,1.112,1.107,1.101,1.096,1.091,1.086,1.08,1.075,1.07,1.067,1.062,1.057,1.056,1.051,1.048,1.044,0,0,0,1.03,0,0,0,2.583,2.583,2.574,2.583,2.574,2.583,2.583,2.593,2.583,2.593,2.593,2.603,2.603,2.603,2.603,2.593,2.593,2.593,2.593,2.593,2.593,2.603,2.603,2.603,2.603,2.613,2.623,2.623,2.623,2.623,2.623,2.623,2.623,0,0,0,0,0,0,0,0,0,0,0,0,0,1.149,1.142,1.136,1.13,1.121,1.114,1.108,1.105,1.1,1.096,1.093,1.089,1.087,1.086,1.084,1.082,1.079,1.077,1.075,1.072,1.07,1.069,1.069,1.069,1.067,1.07,1.072,1.077,1.082
0,0,1.151,1.145,1.138,1.132,1.128,1.127,1.125,1.125,1.125,1.125,1.125,1.125,1.128,1.13,1.132,1.134,1.136,1.138,1.142,1.143,1.147,1.151,1.155,0,0,0,0,0,0,2.345,2.345,2.345,2.353,2.353,2.345,2.337,2.329,2.329,2.329,2.329,2.329,2.329,2.329,2.329,2.329,2.329,2.329,2.337,2.329,2.329,2.329,2.329,2.329,2.329,2.337,2.337,2.345,2.345,2.353,2.361,2.37,2.386,2.394,2.394,0,0,0,0,0,0,0,0,0,0,0,0,0,0,1.07,1.074,1.077,1.082,1.086,1.089,1.091,1.094,1.098,1.103,1.107,1.11,1.114,1.117,1.121,1.125,1.128,1.132,1.136,1.14,1.143,1.147,1.151,0,2.403,2.403,2.394,2.394,2.394,2.394,2.386,2.386,2.394,2.386,2.386,2.386,2.386,2.394,2.394,2.403,2.403,2.403,2.411,2.411,2.42,2.42,2.42,2.428,2.428,2.428,2.428,2.428,2.428,2.437,2.437,2.437,2.437,2.437,2.437,2.446,2.446,2.446,2.437,2.437,2.437,0,0,0,0,0,0,0,0,0,0,0,0,1.119,1.119,1.117,1.116,1.117,1.116,1.116,1.117,1.121,1.125,1.13,1.136,1.143,1.151,1.161,1.169,1.175,1.181,0,2.386,2.386,2.394,2.403,2.403,2.411,2.411,2.411,2.411,2.403,2.403,2.411,2.411,2.411,2.411,2.411,2.411,2.411,2.42,2.42,2.42,2.428,2.428,2.428,2.428,2.428,2.428,2.428,2.42,2.42,2.42,2.411,2.411,2.403,2.403,2.411,2.411,2.411,2.411,2.42,2.428,2.428,2.428,2.428,2.428,2.428,0,0,0,0,0,0,0,0,0,0,0,1.101,1.101,1.103,1.107,1.11,1.114,1.117,1.121,1.121,1.125,1.127,1.128,0,0,2.472,2.472,2.463,2.463,2.463,2.463,2.463,2.463,2.454,2.454,2.454,2.454,2.454,2.446,2.446,2.446,2.446,2.446,2.446,2.446,2.446,2.446,2.446,2.446,2.446,2.446,2.446,2.454,2.454,2.454,2.454,2.454,2.454,2.454,2.463,2.463,2.463,2.472,2.472,2.472,2.472,2.463,2.463,2.446,2.446,2.446,2.437,2.428,2.428,0,0,0,0,0,0,0,0,0,0,0,0,1.101,1.101,1.1,1.1,1.098,1.096,1.096,1.096,1.096,1.094,1.094,0,0,2.446,2.437,2.437,2.437,2.428,2.428,2.428,2.428,2.428,2.428,2.437,2.428,2.428,2.428,2.437,2.428,2.428,2.428,2.428,2.428,2.42,2.42,2.42,2.428,2.428,2.437,2.446,2.454,2.454,2.463,2.463,2.463,2.472,2.472,2.472,2.472,2.472,2.463,2.463,2.454,2.454,2.454,2.437,2.437,2.437,2.437,2.446,0,0,0,0,0,0,0,0,0,0,0,1.125,1.119,1.116,1.112,1.108,1.105,1.101,1.1,1.098,1.094,1.094,1.093,1.093,1.091,1.087,1.087,0,2.536,2.536,2.536,2.536,2.536,2.536,2.536,2.536,2.536,2.536,2.536,2.526,2.517,2.508,2.499,2.49,2.481,2.481,2.472,2.472,2.463,2.463,2.463,2.463,2.463,2.463,2.463,2.463,2.472,2.472,2.481,2.481,2.49,2.49,2.499,2.499,2.499,2.508,2.508,2.517,2.526,2.526,2.536,2.536,2.545,2.545,0,0,0,0,0,0,0,0,0,0,0,1.14,1.136,1.13,1.125,1.119,1.116,1.11,1.105,1.1,1.096,1.091,1.084,1.08,1.075,1.07,1.064,1.059,1.056,1.051,1.048,1.046,1.038,1.038,0,0,0,2.593,2.593,2.583,2.593,2.583,2.583,2.583,2.593,2.593,2.593,2.593,2.603,2.603,2.603,2.603,2.603,2.593,2.593,2.593,2.593,2.593,2.593,2.603,2.603,2.603,2.603,2.613,2.623,2.623,2.633,0,0,0,0,0,0,0,0,0,0,1.201,1.189,0,0,0,0,1.163,1.157,1.151,1.143,1.138,1.132,1.125,1.119,1.116,1.11,1.107,1.103,1.1,1.096,1.093,1.091,1.087,1.086,1.084,1.082,1.08,1.079,1.077,1.077,1.075,1.075,1.077,1.082,1.087,1.096,1.107
0,0,0,1.175,1.167,1.159,1.151,1.149,1.145,1.143,1.14,1.138,1.134,1.134,1.134,1.136,1.136,1.138,1.138,1.14,1.143,1.145,1.149,1.153,1.155,1.159,1.165,1.169,0,1.183,0,0,0,0,0,0,2.337,2.337,2.329,2.322,2.329,2.329,2.329,2.329,2.329,2.329,2.322,2.329,2.329,2.329,2.329,2.329,2.329,2.329,2.329,2.337,2.337,2.345,2.345,2.361,2.361,2.37,2.378,2.378,2.386,2.394,2.394,2.403,2.394,0,0,0,0,0,0,0,0,0,0,0,0,1.074,1.077,1.08,1.084,1.087,1.091,1.094,1.098,1.105,1.108,1.114,1.117,1.121,1.125,1.128,1.134,1.136,1.14,1.143,1.147,1.151,1.155,1.161,0,2.403,2.394,2.394,2.394,2.394,2.386,2.386,2.386,2.378,2.386,2.386,2.386,2.386,2.394,2.394,2.403,2.403,2.411,2.411,2.411,2.411,2.42,2.42,2.428,2.428,2.428,2.428,2.428,2.428,2.428,2.428,2.437,2.437,2.437,2.437,2.437,2.437,2.437,2.437,2.428,0,0,0,0,0,0,0,0,0,0,0,0,1.123,1.121,1.119,1.119,1.119,1.119,1.119,1.121,1.123,1.128,1.134,1.14,1.147,1.155,1.163,1.171,1.177,1.183,1.191,2.394,2.394,2.403,2.403,2.403,2.403,2.411,2.411,2.411,2.411,2.411,2.411,2.411,2.411,2.411,2.411,2.411,2.411,2.42,2.42,2.42,2.42,2.42,2.428,2.428,2.428,2.42,2.42,2.42,2.42,2.42,2.42,2.411,2.411,2.42,2.42,2.42,2.42,2.42,2.428,2.428,2.428,2.437,2.437,2.428,0,0,0,0,0,0,0,0,0,0,0,0,1.108,1.11,1.112,1.114,1.117,1.121,1.125,1.128,1.128,1.132,1.134,1.136,0,0,2.472,2.472,2.463,2.463,2.463,2.463,2.463,2.463,2.454,2.454,2.454,2.454,2.454,2.454,2.446,2.446,2.446,2.446,2.446,2.446,2.446,2.446,2.446,2.446,2.446,2.446,2.446,2.446,2.446,2.446,2.446,2.446,2.454,2.454,2.454,2.463,2.463,2.463,2.463,2.463,2.463,2.454,2.454,2.446,2.437,2.437,2.428,2.42,2.42,0,0,0,0,0,0,0,0,0,0,0,0,1.114,1.114,1.11,1.108,1.107,1.107,1.105,1.107,1.105,1.103,1.103,0,2.454,2.446,2.446,2.446,2.446,2.437,2.428,2.437,2.437,2.437,2.437,2.437,2.437,2.428,2.428,2.437,2.428,2.428,2.428,2.428,2.428,2.42,2.42,2.42,2.428,2.428,2.437,2.446,2.454,2.463,2.463,2.463,2.472,2.481,2.481,2.481,2.481,2.472,2.472,2.472,2.463,2.454,2.454,2.437,2.437,2.437,2.428,2.437,0,0,0,0,0,0,0,0,0,0,0,1.128,1.123,1.119,1.116,1.112,1.11,1.107,1.103,1.101,1.1,1.1,1.098,1.098,1.096,1.094,1.094,0,2.536,2.536,2.536,2.536,2.536,2.536,2.536,2.536,2.536,2.536,2.526,2.517,2.517,2.508,2.508,2.499,2.49,2.49,2.49,2.481,2.481,2.481,2.472,2.472,2.472,2.472,2.472,2.472,2.472,2.472,2.472,2.472,2.481,2.49,2.49,2.49,2.49,2.499,2.499,2.508,2.526,2.526,2.536,2.536,2.545,0,0,0,0,0,0,0,0,0,0,0,1.143,1.142,1.138,1.132,1.128,1.123,1.117,1.112,1.108,1.103,1.098,1.093,1.087,1.082,1.077,1.072,1.065,1.06,1.056,1.052,1.049,1.044,0,0,0,0,2.583,2.593,2.593,2.593,2.593,2.583,2.583,2.593,2.593,2.593,2.593,2.603,2.603,2.603,2.603,2.603,2.603,2.593,2.593,2.583,2.583,2.583,2.593,2.593,2.593,2.603,2.603,2.603,2.623,2.623,0,0,0,0,0,0,0,1.212,0,0,1.201,1.197,1.187,1.185,1.179,1.175,1.169,1.161,1.157,1.151,1.145,1.14,1.134,1.128,1.123,1.119,1.114,1.11,1.107,1.103,1.1,1.098,1.094,1.093,1.091,1.089,1.086,1.084,1.084,1.086,1.084,1.086,1.089,1.094,1.103,1.114,1.123,1.136
1.232,1.221,0,0,1.195,1.187,1.179,1.173,1.169,1.165,1.159,1.157,1.151,1.149,1.145,1.145,1.143,1.143,1.143,1.143,1.145,1.147,1.151,1.155,1.157,1.161,1.165,1.171,1.177,1.183,1.189,0,1.203,1.21,0,0,0,2.329,2.322,2.322,2.329,2.322,2.329,2.322,2.322,2.329,2.329,2.329,2.337,2.329,2.322,2.329,2.329,2.329,2.337,2.337,2.345,2.345,2.353,2.37,2.361,2.378,2.378,2.386,2.394,2.394,2.386,2.394,2.394,0,0,0,0,0,0,0,0,0,0,0,0,1.075,1.077,1.082,1.084,1.087,1.093,1.096,1.101,1.107,1.112,1.116,1.121,1.125,1.13,1.134,1.138,1.142,1.145,1.149,1.151,1.155,1.159,1.165,1.171,0,2.394,2.394,2.394,2.394,2.386,2.386,2.386,2.378,2.378,2.378,2.378,2.386,2.386,2.394,2.394,2.394,2.403,2.411,2.411,2.411,2.42,2.42,2.42,2.42,2.42,2.42,2.42,2.428,2.428,2.428,2.428,2.428,2.428,2.428,2.437,2.437,2.437,2.428,2.428,0,0,0,0,0,0,0,0,0,0,0,0,0,0,1.121,1.121,1.121,1.121,1.123,1.123,1.127,1.13,1.136,1.143,1.151,1.157,1.167,1.175,1.181,1.187,1.193,1.199,0,2.403,2.403,2.403,2.403,2.403,2.411,2.411,2.411,2.411,2.411,2.411,2.411,2.411,2.411,2.411,2.411,2.42,2.42,2.42,2.42,2.42,2.42,2.42,2.42,2.42,2.42,2.42,2.42,2.42,2.42,2.42,2.42,2.42,2.428,2.428,2.428,2.428,2.437,2.437,2.437,2.446,2.437,2.437,2.437,2.437,0,0,0,0,0,0,0,0,0,0,0,1.119,1.121,1.123,1.127,1.128,1.132,1.136,1.138,1.14,1.142,1.143,0,0,2.472,2.472,2.472,2.463,2.463,2.463,2.463,2.463,2.454,2.454,2.454,2.454,2.454,2.454,2.454,2.446,2.446,2.446,2.446,2.446,2.446,2.446,2.446,2.446,2.446,2.446,2.446,2.446,2.446,2.446,2.446,2.446,2.446,2.446,2.446,2.446,2.454,2.454,2.454,2.454,2.454,2.446,2.446,2.437,2.437,2.428,2.42,2.411,0,0,0,0,0,0,0,0,0,0,0,0,1.125,1.125,1.123,1.119,1.119,1.116,1.116,1.114,1.114,1.112,0,0,2.463,2.463,2.454,2.454,2.454,2.446,2.446,2.437,2.437,2.437,2.437,2.437,2.437,2.437,2.437,2.437,2.437,2.437,2.428,2.42,2.42,2.42,2.42,2.42,2.42,2.42,2.428,2.437,2.446,2.454,2.463,2.463,2.472,2.472,2.481,2.49,2.49,2.481,2.481,2.481,2.472,2.472,2.463,2.454,2.437,2.437,2.428,2.428,2.428,0,0,0,0,0,0,0,0,0,0,1.14,1.132,1.128,1.125,1.121,1.117,1.114,1.11,1.108,1.107,1.105,1.105,1.103,1.103,1.103,0,0,0,2.526,2.526,2.536,2.536,2.536,2.536,2.536,2.536,2.536,2.526,2.526,2.517,2.517,2.508,2.508,2.499,2.499,2.499,2.499,2.49,2.49,2.49,2.481,2.481,2.472,2.472,2.472,2.472,2.472,2.463,2.463,2.463,2.472,2.472,2.472,2.472,2.472,2.481,2.49,2.499,2.517,2.526,2.536,0,0,0,0,0,0,0,0,0,0,0,1.149,1.147,1.145,1.143,1.138,1.134,1.13,1.125,1.119,1.116,1.112,1.107,1.101,1.096,1.091,1.086,1.08,1.075,1.067,1.062,1.056,1.052,0,0,0,0,0,2.583,2.583,2.593,2.593,2.593,2.593,2.593,2.593,2.593,2.593,2.593,2.593,2.603,2.603,2.603,2.603,2.603,2.603,2.593,2.583,2.583,2.583,2.583,2.583,2.583,2.583,2.593,2.603,2.603,0,0,0,0,0,0,0,0,0,1.212,0,1.206,1.199,1.195,1.187,1.183,1.179,1.175,1.169,1.163,1.159,1.153,1.147,1.142,1.138,1.132,1.127,1.123,1.117,1.114,1.11,1.108,1.105,1.103,1.1,1.096,1.094,1.093,1.093,1.091,1.093,1.096,1.098,1.103,1.11,1.119,1.13,1.143,1.157,1.169
1.254,1.249,1.24,1.234,0,0,1.203,1.197,1.193,1.189,1.183,1.177,1.171,1.165,1.161,1.159,1.155,1.151,1.149,1.149,1.149,1.151,1.153,1.155,1.159,1.161,1.167,1.171,1.177,1.183,1.187,1.193,1.201,1.208,1.214,1.223,1.227,0,0,0,2.329,2.329,2.322,2.329,2.329,2.337,2.329,2.329,2.329,2.329,2.329,2.329,2.329,2.337,2.337,2.345,2.353,2.353,2.361,2.37,2.37,2.378,2.386,2.378,2.386,2.386,2.386,2.386,2.386,2.386,2.386,0,0,0,0,0,0,0,0,0,0,0,1.077,1.08,1.084,1.087,1.091,1.096,1.103,1.11,1.116,1.121,1.125,1.13,1.134,1.138,1.143,1.147,1.149,1.153,1.157,1.159,1.165,1.169,1.175,0,0,0,2.394,2.386,2.386,2.386,2.378,2.378,2.378,2.378,2.378,2.378,2.386,2.386,2.394,2.394,2.403,2.403,2.411,2.411,2.411,2.411,2.42,2.42,2.42,2.42,2.411,2.42,2.42,2.42,2.42,2.42,2.42,2.42,2.428,2.428,2.428,2.42,2.42,2.42,2.42,2.42,2.42,0,0,0,0,0,0,0,0,0,0,0,1.125,1.125,1.125,1.125,1.127,1.13,1.134,1.138,1.145,1.153,1.161,1.169,1.175,1.183,1.189,1.195,1.199,0,0,2.403,2.403,2.411,2.411,2.411,2.411,2.411,2.411,2.411,2.411,2.411,2.411,2.411,2.411,2.411,2.42,2.42,2.42,2.42,2.42,2.42,2.42,2.42,2.42,2.42,2.42,2.42,2.42,2.42,2.42,2.42,2.428,2.428,2.437,2.437,2.437,2.437,2.437,2.446,2.446,2.446,2.446,2.437,0,0,0,0,0,0,0,0,0,0,0,0,1.127,1.13,1.132,1.134,1.138,1.14,1.143,1.147,1.149,1.151,1.153,0,0,2.481,2.472,2.472,2.463,2.463,2.463,2.463,2.463,2.463,2.454,2.454,2.454,2.454,2.454,2.454,2.446,2.446,2.446,2.446,2.446,2.437,2.437,2.446,2.446,2.446,2.446,2.446,2.446,2.446,2.446,2.446,2.446,2.446,2.446,2.437,2.437,2.446,2.446,2.454,2.446,2.446,2.437,2.437,2.428,2.428,2.428,2.411,0,0,0,0,0,0,0,0,0,0,0,1.142,1.14,1.138,1.134,1.132,1.128,1.127,1.127,1.125,1.123,1.123,1.121,0,0,0,2.463,2.463,2.454,2.454,2.446,2.446,2.437,2.437,2.437,2.437,2.437,2.437,2.437,2.437,2.437,2.437,2.437,2.428,2.428,2.42,2.42,2.42,2.411,2.411,2.42,2.42,2.437,2.446,2.446,2.454,2.463,2.472,2.481,2.49,2.499,2.499,2.499,2.49,2.49,2.49,2.481,2.472,2.454,2.446,2.437,2.428,2.42,0,0,0,0,0,0,0,0,0,0,1.153,1.143,1.138,1.134,1.13,1.127,1.121,1.119,1.116,1.114,1.112,1.11,1.108,1.108,1.107,0,2.526,2.526,2.526,2.526,2.526,2.536,2.536,2.536,2.536,2.536,2.536,2.526,2.526,2.517,2.517,2.508,2.508,2.499,2.499,2.499,2.499,2.499,2.499,2.499,2.49,2.49,2.481,2.481,2.481,2.481,2.481,2.472,2.463,2.463,2.463,2.463,2.463,2.463,2.463,2.463,2.472,2.481,2.49,0,0,0,0,0,0,0,0,0,0,0,1.159,1.157,1.155,1.151,1.149,1.147,1.145,1.142,1.138,1.134,1.13,1.125,1.121,1.116,1.11,1.105,1.1,1.094,1.089,1.082,1.077,1.069,0,0,0,0,0,0,2.564,2.574,2.574,2.583,2.593,2.603,2.593,2.593,2.593,2.593,2.593,2.593,2.593,2.593,2.603,2.603,2.603,2.603,2.603,2.603,2.593,2.593,2.583,2.574,2.583,2.583,2.583,2.583,2.593,0,0,0,0,0,0,0,0,0,0,1.216,1.212,1.208,1.201,1.199,1.193,1.185,1.183,1.179,1.173,1.169,1.163,1.159,1.155,1.149,1.145,1.14,1.136,1.132,1.127,1.123,1.119,1.116,1.112,1.108,1.107,1.105,1.103,1.101,1.098,1.098,1.1,1.103,1.112,1.116,1.125,1.136,1.147,1.163,1.177,1.191,0
1.273,1.27,1.266,1.259,1.252,1.245,1.234,1.227,0,0,1.208,1.201,1.193,1.187,1.181,1.175,1.169,1.165,1.161,1.159,1.157,1.155,1.157,1.159,1.159,1.163,1.165,1.171,1.175,1.183,1.187,1.193,1.201,1.208,1.214,1.218,1.227,1.234,1.24,0,0,2.337,2.337,2.337,2.345,2.345,2.337,2.345,2.337,2.337,2.329,2.337,2.345,2.345,2.345,2.353,2.361,2.361,2.37,2.378,2.378,2.378,2.386,2.386,2.386,2.386,2.394,2.394,2.386,2.386,2.386,0,0,0,0,0,0,0,0,0,0,0,0,1.08,1.084,1.086,0,1.096,1.105,1.114,1.119,1.125,1.13,1.134,1.138,1.143,1.149,1.151,1.155,1.159,1.163,1.165,1.169,1.175,1.179,1.185,1.191,0,0,2.394,2.386,2.386,2.378,2.378,2.37,2.37,2.37,2.378,2.378,2.386,2.386,2.394,2.403,2.403,2.403,2.411,2.411,2.411,2.411,2.411,2.411,2.411,2.403,2.411,2.411,2.411,2.411,2.411,2.42,2.42,2.42,2.42,2.42,2.42,2.42,2.42,2.42,2.42,0,0,0,0,0,0,0,0,0,0,0,0,1.125,1.127,1.127,1.128,1.13,1.132,1.138,1.142,1.149,1.155,1.163,1.171,1.179,1.183,1.191,1.197,1.201,1.206,0,2.403,2.403,2.411,2.411,2.411,2.411,2.411,2.411,2.411,2.411,2.411,2.411,2.411,2.411,2.42,2.42,2.42,2.42,2.42,2.42,2.42,2.42,2.42,2.42,2.42,2.42,2.42,2.42,2.42,2.42,2.428,2.428,2.428,2.428,2.437,2.437,2.437,2.446,2.446,2.446,2.446,2.446,2.446,2.446,0,0,0,0,0,0,0,0,0,0,0,0,1.136,1.14,1.142,1.145,1.147,1.151,1.155,1.157,1.159,1.161,0,0,2.481,2.472,2.472,2.463,2.463,2.463,2.463,2.463,2.454,2.454,2.454,2.454,2.454,2.454,2.454,2.446,2.446,2.446,2.446,2.437,2.437,2.437,2.437,2.437,2.446,2.446,2.446,2.446,2.446,2.446,2.446,2.446,2.446,2.437,2.437,2.437,2.437,2.446,2.446,2.446,2.437,2.428,2.428,2.428,2.428,2.42,2.411,0,0,0,0,0,0,0,0,0,0,0,1.151,1.147,1.147,1.143,1.142,1.14,1.138,1.134,1.134,1.132,1.132,1.13,1.13,0,2.472,2.463,2.463,2.463,2.463,2.454,2.446,2.446,2.446,2.446,2.446,2.437,2.437,2.437,2.437,2.437,2.437,2.437,2.428,2.428,2.42,2.42,2.411,2.411,2.411,2.411,2.42,2.428,2.437,2.446,2.454,2.463,2.481,2.481,2.49,2.508,2.508,2.499,2.508,2.499,2.499,2.49,2.472,2.454,0,0,0,0,0,0,0,0,0,0,1.189,1.181,1.173,1.165,1.157,1.149,1.142,1.138,1.134,1.13,1.127,1.123,1.119,1.117,1.116,1.114,1.112,1.11,0,2.526,2.526,2.526,2.517,2.517,2.526,2.526,2.526,2.526,2.526,2.526,2.526,2.526,2.517,2.517,2.508,2.508,2.499,2.499,2.499,2.499,2.499,2.499,2.499,2.499,2.499,2.49,2.49,2.481,2.481,2.481,2.481,2.472,2.463,2.463,2.446,2.454,2.454,2.454,2.454,2.446,2.454,0,0,0,0,0,0,0,0,0,0,0,0,1.165,1.161,1.159,1.157,1.155,1.151,1.151,1.147,1.145,1.142,1.138,1.134,1.128,1.125,1.121,1.114,1.108,1.103,1.098,1.093,0,0,0,0,2.526,2.526,2.536,2.545,2.555,2.564,2.564,2.574,2.583,2.593,2.593,2.603,2.593,2.593,2.593,2.593,2.593,2.593,2.593,2.603,2.603,2.603,2.603,2.603,2.603,2.603,2.593,2.583,2.583,2.574,2.583,2.583,2.583,0,0,0,0,0,0,0,0,0,0,1.218,1.212,1.21,1.206,1.203,1.197,1.193,1.185,1.181,1.179,1.175,1.171,1.165,1.161,1.157,1.153,1.149,1.143,1.14,1.136,1.132,1.128,1.125,1.123,1.119,1.116,1.114,1.114,1.114,1.116,1.117,1.121,1.123,1.132,1.143,1.153,1.161,1.171,1.183,1.199,0,1.227,1.236
1.28,1.28,1.277,1.275,1.27,1.268,1.261,1.252,1.245,1.238,1.229,1.225,1.216,1.208,1.201,1.195,1.187,1.181,1.175,1.169,1.167,1.165,1.163,1.161,1.163,1.165,1.167,1.171,1.177,1.181,1.185,1.191,1.197,1.206,1.212,1.218,1.223,1.229,1.236,1.243,1.247,0,0,0,2.345,2.353,2.345,2.345,2.345,2.337,2.337,2.345,2.345,2.353,2.353,2.361,2.37,2.37,2.378,2.386,2.378,2.378,2.386,2.386,2.386,2.378,2.378,2.386,2.386,2.378,2.386,0,0,0,0,0,0,0,0,0,0,0,0,0,0,0,0,0,0,1.116,1.121,1.127,1.132,1.138,1.143,1.147,1.153,1.157,1.161,1.165,1.169,1.171,1.175,1.181,1.185,1.191,1.197,1.201,1.208,0,0,2.386,2.378,2.37,2.361,2.361,2.37,2.37,2.378,2.378,2.378,2.386,2.394,2.403,2.403,2.403,2.403,2.411,2.411,2.411,2.403,2.403,2.403,2.403,2.403,2.403,2.411,2.411,2.411,2.411,2.411,2.411,2.411,2.411,2.42,2.411,2.411,2.411,2.42,2.42,2.42,0,0,0,0,0,0,0,0,0,0,1.128,1.128,1.132,1.134,1.136,1.14,1.145,1.151,1.157,1.165,1.173,1.179,1.185,1.193,1.199,1.203,1.208,1.212,0,2.403,2.403,2.411,2.411,2.411,2.411,2.411,2.411,2.42,2.411,2.411,2.411,2.42,2.42,2.42,2.42,2.42,2.42,2.42,2.42,2.42,2.428,2.42,2.42,2.428,2.428,2.428,2.428,2.428,2.428,2.428,2.428,2.437,2.437,2.437,2.446,2.446,2.446,2.446,2.446,2.446,2.446,2.446,0,0,0,0,0,0,0,0,0,0,0,0,1.142,1.145,1.149,1.151,1.153,1.157,1.163,1.165,1.167,1.167,0,0,2.481,2.472,2.472,2.463,2.463,2.463,2.463,2.463,2.454,2.454,2.454,2.454,2.454,2.454,2.454,2.446,2.446,2.446,2.446,2.437,2.437,2.437,2.437,2.437,2.437,2.446,2.446,2.446,2.446,2.437,2.437,2.437,2.446,2.437,2.428,2.437,2.437,2.437,2.446,2.437,2.437,2.428,2.428,2.428,2.428,2.42,2.403,0,0,0,0,0,0,0,0,0,0,0,1.159,1.157,1.155,1.153,1.151,1.147,1.145,1.143,1.143,1.142,1.142,1.142,0,0,2.463,2.463,2.472,2.463,2.463,2.454,2.454,2.454,2.446,2.446,2.446,2.437,2.437,2.437,2.437,2.437,2.446,2.437,2.428,2.428,2.42,2.411,2.411,2.403,2.403,2.411,2.411,2.42,2.437,2.446,2.454,2.463,2.481,2.49,2.499,2.508,2.508,2.508,2.517,2.508,2.508,2.499,2.481,0,0,0,0,0,0,0,0,0,0,1.201,1.195,1.185,1.179,1.171,1.161,1.155,1.149,1.143,1.14,1.134,1.132,1.128,1.127,1.123,1.121,1.117,1.114,0,0,2.517,2.517,2.517,2.517,2.517,2.517,2.517,2.517,2.526,2.526,2.526,2.517,2.517,2.517,2.508,2.499,2.499,2.499,2.49,2.49,2.499,2.499,2.499,2.499,2.499,2.499,2.49,2.49,2.481,2.481,2.472,2.472,2.463,2.454,2.446,2.437,2.437,2.437,2.428,2.428,2.428,2.428,0,0,0,0,0,0,0,0,0,0,0,1.171,1.167,1.165,1.161,1.159,1.157,1.155,1.153,1.151,1.149,1.145,1.142,1.136,1.134,1.128,1.125,1.119,1.11,1.107,1.101,0,0,0,2.536,2.536,2.536,2.536,2.536,2.545,2.564,2.564,2.574,2.574,2.583,2.593,2.603,2.593,2.593,2.593,2.593,2.593,2.603,2.603,2.603,2.603,2.603,2.603,2.603,2.603,2.603,2.603,2.593,2.583,2.574,2.574,2.574,2.574,0,0,0,0,0,0,0,0,0,0,1.221,1.216,1.212,1.208,1.203,1.199,1.197,1.193,1.185,1.181,1.177,1.175,1.171,1.167,1.163,1.159,1.155,1.151,1.147,1.143,1.142,1.138,1.134,1.13,1.13,1.13,1.132,1.132,1.136,1.14,1.145,1.149,1.157,1.161,1.171,1.181,1.191,1.197,1.208,1.221,0,1.245,1.256,1.263
1.284,1.287,1.289,1.289,1.289,1.287,1.282,1.277,1.27,1.263,1.254,1.249,1.24,1.232,1.225,1.216,1.208,1.199,1.191,1.183,1.177,1.173,1.169,1.165,1.165,1.165,1.169,1.171,1.175,1.181,1.183,1.191,1.195,1.201,1.208,1.214,1.221,1.225,1.232,1.238,1.24,1.245,0,0,0,2.353,2.353,2.353,2.353,2.345,2.345,2.353,2.361,2.361,2.37,2.37,2.37,2.378,2.386,2.386,2.386,2.378,2.386,2.378,2.378,2.378,2.378,2.378,2.378,2.378,2.378,2.37,2.37,2.378,0,0,0,0,0,0,0,0,0,0,0,0,0,0,0,0,1.125,1.132,1.138,1.143,1.147,1.153,1.157,1.163,1.167,1.171,1.173,1.177,1.183,1.185,1.191,1.197,1.201,1.206,1.21,1.216,1.223,0,0,2.361,2.353,2.361,2.361,2.37,2.37,2.37,2.378,2.378,2.394,2.394,2.403,2.403,2.403,2.403,2.403,2.403,2.403,2.403,2.403,2.403,2.403,2.403,2.403,2.403,2.403,2.411,2.411,2.411,2.411,2.411,2.411,2.411,2.411,2.411,2.42,2.42,2.428,0,0,0,0,0,0,0,0,0,0,0,1.132,1.136,1.136,1.14,1.143,1.149,1.153,1.161,1.167,1.175,1.183,1.189,1.197,1.203,1.208,1.212,1.216,1.221,2.403,2.403,2.411,2.411,2.411,2.411,2.411,2.411,2.42,2.42,2.411,2.42,2.42,2.42,2.42,2.42,2.42,2.42,2.42,2.428,2.428,2.428,2.428,2.428,2.428,2.428,2.428,2.428,2.428,2.437,2.428,2.437,2.437,2.437,2.437,2.446,2.446,2.437,2.437,2.446,2.446,2.446,2.446,0,0,0,0,0,0,0,0,0,0,0,0,1.145,1.151,1.155,1.159,1.161,1.165,1.171,1.173,1.175,1.175,1.177,0,2.481,2.472,2.472,2.463,2.463,2.463,2.463,2.463,2.454,2.454,2.454,2.454,2.454,2.454,2.446,2.446,2.446,2.446,2.446,2.437,2.437,2.437,2.437,2.437,2.437,2.446,2.446,2.446,2.437,2.437,2.437,2.437,2.446,2.437,2.428,2.428,2.437,2.437,2.446,2.437,2.428,2.428,2.428,2.428,2.428,2.42,0,0,0,0,0,0,0,0,0,0,0,1.169,1.167,1.167,1.165,1.161,1.159,1.157,1.153,1.153,1.153,1.151,1.151,0,0,0,2.472,2.472,2.472,2.472,2.472,2.463,2.463,2.454,2.454,2.446,2.446,2.446,2.437,2.437,2.437,2.437,2.446,2.437,2.428,2.428,2.42,2.411,2.403,2.403,2.403,2.403,2.411,2.42,2.428,2.437,2.454,2.463,2.481,2.49,2.499,2.508,2.508,2.517,2.517,2.517,2.517,2.508,2.49,2.463,0,0,0,0,0,0,0,0,0,1.208,1.199,1.191,1.183,1.175,1.167,1.159,1.155,1.149,1.143,1.14,1.136,1.134,1.132,1.128,1.127,1.123,1.119,0,0,2.508,2.499,2.499,2.508,2.508,2.508,2.508,2.517,2.517,2.517,2.508,2.508,2.508,2.508,2.499,2.499,2.49,2.49,2.49,2.49,2.49,2.49,2.49,2.499,2.499,2.49,2.49,2.481,2.481,2.481,2.472,2.463,2.463,2.446,2.437,2.428,2.42,2.42,2.411,2.411,2.403,2.403,0,0,0,0,0,0,0,0,0,0,1.177,1.173,1.171,1.167,1.163,1.161,1.159,1.157,1.155,1.155,1.151,1.149,1.143,1.142,1.136,1.134,1.128,1.121,1.116,1.108,0,0,0,0,2.536,2.536,2.536,2.536,2.545,2.555,2.555,2.564,2.564,2.574,2.583,2.583,2.593,2.593,2.593,2.593,2.603,2.603,2.603,2.603,2.603,2.603,2.603,2.603,2.613,2.613,2.603,2.603,2.593,2.583,2.574,2.574,2.574,0,0,0,0,0,0,0,0,0,0,1.218,1.216,1.212,1.208,1.206,1.201,1.197,1.193,1.189,1.185,1.181,1.177,1.173,1.171,1.167,1.165,1.161,1.159,1.155,1.153,1.149,1.145,1.143,1.143,1.143,1.145,1.151,1.155,1.157,1.165,1.173,1.181,1.187,1.191,1.197,1.206,1.216,1.225,0,1.243,1.252,1.263,1.273,1.28,1.284
1.287,1.292,1.297,1.297,1.299,1.299,1.299,1.297,1.289,1.284,1.275,1.27,1.263,1.256,1.249,1.243,1.234,0,1.21,1.201,1.193,1.185,1.175,1.169,1.167,1.167,1.171,1.173,1.175,1.179,1.183,1.187,1.195,1.199,1.206,1.212,1.216,1.225,1.229,1.234,1.238,1.243,1.247,1.249,0,0,2.353,2.353,2.353,2.345,2.345,2.361,2.37,2.37,2.37,2.386,2.386,2.386,2.386,2.394,2.394,2.378,2.386,2.386,2.386,2.378,2.378,2.386,2.378,2.378,2.378,2.378,2.378,2.37,2.37,2.37,0,0,0,0,0,0,0,0,0,0,0,0,0,0,0,1.138,1.142,1.147,1.151,1.157,1.163,1.167,1.171,1.177,1.179,1.183,1.187,1.191,1.195,1.199,1.206,1.21,1.214,1.218,1.225,1.232,0,0,2.353,2.353,2.353,2.361,2.361,2.37,2.37,2.378,2.386,2.394,2.403,2.403,2.403,2.403,2.403,2.403,2.403,2.394,2.394,2.394,2.394,2.394,2.394,2.394,2.394,2.403,2.403,2.403,2.403,2.411,2.411,2.411,2.411,2.42,2.42,2.428,2.428,2.437,0,0,0,0,0,0,0,0,0,0,0,1.14,1.14,1.143,1.147,1.155,1.159,1.165,1.173,1.181,1.187,1.193,1.201,1.208,1.212,1.218,1.223,1.227,0,2.411,2.403,2.411,2.411,2.411,2.411,2.411,2.42,2.42,2.42,2.42,2.42,2.42,2.42,2.42,2.42,2.42,2.428,2.428,2.428,2.428,2.428,2.428,2.428,2.437,2.437,2.437,2.437,2.446,2.437,2.437,2.446,2.446,2.446,2.446,2.446,2.437,2.437,2.446,2.446,2.446,2.446,2.463,0,0,0,0,0,0,0,0,0,0,0,0,1.159,1.163,1.167,1.171,1.175,1.179,1.183,1.185,1.185,1.187,0,2.481,2.481,2.472,2.472,2.463,2.463,2.463,2.463,2.454,2.454,2.454,2.454,2.454,2.454,2.446,2.446,2.446,2.446,2.446,2.446,2.437,2.446,2.446,2.446,2.446,2.446,2.446,2.446,2.446,2.437,2.437,2.437,2.437,2.437,2.428,2.428,2.437,2.437,2.446,2.446,2.437,2.437,2.437,2.437,2.437,2.428,0,0,0,0,0,0,0,0,0,0,1.181,1.179,1.177,1.175,1.175,1.171,1.169,1.165,1.165,1.163,1.161,1.161,0,0,0,0,2.463,2.472,2.472,2.472,2.472,2.472,2.463,2.463,2.454,2.454,2.446,2.446,2.437,2.437,2.437,2.437,2.437,2.437,2.437,2.428,2.42,2.42,2.411,2.403,2.403,2.403,2.411,2.42,2.428,2.437,2.446,2.463,2.481,2.49,2.499,2.508,2.517,2.517,2.526,2.526,2.526,2.517,2.499,0,0,0,0,0,0,0,0,0,0,1.21,1.203,1.195,1.187,1.181,1.173,1.167,1.161,1.155,1.151,1.147,1.143,1.14,1.14,1.136,1.134,1.128,0,0,0,2.49,2.49,2.49,2.49,2.499,2.499,2.508,2.508,2.508,2.499,2.499,2.499,2.499,2.49,2.49,2.49,2.481,2.481,2.49,2.49,2.49,2.49,2.49,2.499,2.49,2.49,2.49,2.481,2.472,2.472,2.472,2.463,2.454,2.437,2.428,2.411,2.403,2.403,0,0,0,0,0,0,0,0,0,0,1.208,1.197,1.189,1.183,1.179,1.177,1.173,1.171,1.167,1.165,1.163,1.161,1.159,1.159,1.155,1.151,1.147,1.143,1.14,1.136,1.132,1.123,1.116,0,0,0,2.526,2.536,2.536,2.536,2.536,2.536,2.545,2.555,2.555,2.564,2.564,2.564,2.574,2.583,2.593,2.593,2.593,2.593,2.593,2.603,2.603,2.603,2.603,2.603,2.603,2.603,2.603,2.603,2.603,2.603,2.593,2.574,2.574,0,0,0,0,0,0,0,0,0,1.225,1.223,1.218,1.216,1.214,1.21,1.208,1.203,1.201,1.197,1.193,1.189,1.185,1.181,1.179,1.175,1.171,1.169,1.167,1.165,1.163,1.159,1.157,1.155,1.153,1.153,1.157,1.161,1.169,1.177,1.183,1.191,1.199,1.208,1.216,1.223,1.227,1.234,0,0,0,1.263,1.27,1.277,1.284,1.292,1.292,1.294
1.289,1.294,1.299,1.304,1.306,1.306,1.306,1.306,1.304,1.302,1.297,1.292,1.287,1.28,1.275,1.268,1.261,1.249,1.236,1.223,1.21,1.197,1.187,1.177,1.171,1.169,1.171,1.173,1.175,1.179,1.183,1.187,1.193,1.197,1.203,1.21,1.214,1.221,1.227,1.232,1.236,1.24,1.243,1.247,1.252,1.256,1.261,0,0,2.345,0,0,0,0,0,2.386,2.394,2.394,2.394,2.394,2.386,2.378,2.378,2.378,2.378,2.378,2.386,2.378,2.378,2.378,2.378,2.37,2.378,2.378,2.37,2.37,2.361,2.361,2.37,0,0,0,0,0,0,0,0,0,0,0,0,0,1.149,1.153,1.159,1.163,1.169,1.173,1.177,1.181,1.185,1.189,1.191,1.195,1.199,1.203,1.208,1.212,1.214,1.221,1.225,1.232,1.24,1.245,0,2.345,2.353,2.353,2.353,2.361,2.37,2.378,2.386,2.394,2.394,2.403,2.403,2.403,2.403,2.403,2.403,2.394,2.394,2.386,2.386,2.386,2.386,2.386,2.386,2.394,2.394,2.394,2.403,2.403,2.411,2.411,2.411,2.42,2.42,2.428,2.428,2.437,2.437,0,0,0,0,0,0,0,0,0,0,0,1.143,1.147,1.151,1.161,1.167,1.173,1.179,1.187,1.195,1.199,1.206,1.212,1.216,1.223,1.229,1.234,1.238,0,2.403,2.403,2.411,2.411,2.411,2.411,2.42,2.42,2.42,2.42,2.42,2.428,2.428,2.428,2.428,2.428,2.428,2.428,2.428,2.428,2.428,2.437,2.437,2.446,2.446,2.446,2.446,2.446,2.446,2.446,2.446,2.446,2.446,2.437,2.437,2.437,2.437,2.437,2.446,2.446,2.454,2.463,2.481,0,0,2.536,0,0,0,0,0,0,0,0,0,0,0,1.179,1.185,1.187,1.191,1.193,1.193,1.195,0,0,2.472,2.472,2.463,2.463,2.463,2.454,2.454,2.454,2.454,2.454,2.454,2.454,2.446,2.446,2.446,2.446,2.446,2.446,2.446,2.446,2.446,2.446,2.446,2.446,2.446,2.446,2.446,2.446,2.437,2.437,2.437,2.437,2.437,2.437,2.428,2.437,2.437,2.446,2.446,2.437,2.437,2.437,2.437,2.437,2.437,0,0,0,0,0,0,0,0,0,0,1.189,1.187,1.187,1.185,1.185,1.181,1.179,1.177,1.175,1.173,1.171,1.169,0,0,2.454,0,2.463,2.463,2.472,2.481,2.481,2.481,2.472,2.463,2.463,2.454,2.454,2.446,2.437,2.437,2.437,2.437,2.437,2.437,2.437,2.428,2.42,2.42,2.411,2.403,2.403,2.403,2.403,2.42,2.42,2.428,2.446,2.463,2.472,2.49,2.499,2.508,2.517,2.517,2.526,2.536,0,0,0,0,0,0,0,0,0,0,1.234,1.229,1.221,1.214,1.208,1.201,1.193,1.187,1.181,1.175,1.169,1.163,1.159,1.155,1.151,1.147,1.145,1.142,0,0,0,0,2.481,2.481,2.481,2.481,2.481,2.49,2.49,2.49,2.49,2.49,2.49,2.49,2.49,2.481,2.481,2.481,2.481,2.481,2.481,2.481,2.481,2.481,2.481,2.49,2.49,2.49,2.481,2.481,2.481,2.472,2.472,2.463,2.454,2.446,2.437,2.42,2.403,0,0,0,0,0,0,0,0,0,0,0,0,1.208,1.199,1.193,1.187,1.183,1.179,1.177,1.175,1.173,1.169,1.167,1.163,1.163,1.161,1.159,1.155,1.151,1.145,0,0,1.134,0,0,0,2.526,2.526,2.526,2.536,2.536,2.536,2.536,2.545,2.545,2.555,2.555,2.564,2.564,2.564,2.574,2.583,2.583,2.583,2.593,2.593,2.593,2.593,2.603,2.603,2.603,2.603,2.603,2.603,2.603,2.613,2.603,2.603,0,0,0,0,0,0,0,0,0,0,1.227,1.225,1.223,1.223,1.221,1.216,1.212,1.21,1.206,1.203,1.199,1.197,1.193,1.189,1.185,1.183,1.181,1.177,1.175,1.173,1.171,1.169,1.167,1.165,1.163,1.163,1.163,1.169,1.175,1.185,1.195,1.206,1.216,1.225,1.236,1.245,0,0,1.263,1.268,1.273,1.277,1.284,1.287,1.292,1.294,1.297,1.299,1.297,1.294
1.289,1.294,1.302,1.304,1.306,1.309,1.311,1.311,1.311,1.311,1.311,1.309,1.306,1.304,1.302,1.294,1.289,1.277,1.263,1.247,1.232,1.216,1.199,1.187,1.177,1.171,1.173,1.175,1.175,1.179,1.181,1.187,1.191,1.197,1.201,1.208,1.212,1.221,1.227,1.232,1.236,1.238,1.243,1.247,1.252,1.254,1.259,1.266,1.273,0,0,0,0,0,2.386,2.394,2.394,2.394,2.394,2.394,2.386,2.378,2.378,2.378,2.378,2.378,2.378,2.378,2.37,2.378,2.378,2.37,2.378,2.37,2.378,2.378,2.361,2.37,2.361,2.361,0,0,0,0,0,0,0,0,0,0,0,0,1.157,1.161,1.165,1.171,1.175,1.179,1.183,1.187,1.191,1.193,1.197,1.199,1.203,1.208,1.212,1.214,1.218,1.223,1.227,1.234,1.24,1.247,1.252,0,2.345,2.353,2.353,2.361,2.37,2.378,2.386,2.386,2.394,2.403,2.403,2.403,2.403,2.403,2.403,2.394,2.394,2.386,2.386,2.386,2.386,2.386,2.386,2.386,2.386,2.394,2.403,2.403,2.403,2.411,2.411,2.42,2.42,2.428,2.428,2.437,2.437,2.446,2.446,2.454,0,0,0,0,0,0,0,0,0,0,0,1.169,1.175,1.181,1.187,1.195,1.201,1.208,1.212,1.218,1.225,1.229,1.236,1.243,1.247,1.252,0,2.411,2.411,2.411,2.42,2.411,2.42,2.42,2.42,2.42,2.428,2.428,2.428,2.428,2.428,2.428,2.428,2.428,2.428,2.437,2.437,2.437,2.446,2.446,2.446,2.446,2.446,2.446,2.446,2.446,2.446,2.446,2.437,2.437,2.437,2.428,2.428,2.437,2.446,2.446,2.446,2.463,2.481,2.49,2.517,2.536,0,0,0,0,0,0,0,0,0,0,0,1.189,1.193,1.195,1.199,1.201,1.201,1.201,0,0,0,2.472,2.463,2.463,2.463,2.454,2.454,2.454,2.454,2.446,2.454,2.446,2.446,2.446,2.446,2.446,2.446,2.446,2.446,2.446,2.446,2.446,2.446,2.446,2.446,2.446,2.446,2.446,2.437,2.437,2.437,2.446,2.446,2.437,2.437,2.437,2.446,2.446,2.446,2.446,2.437,2.437,2.446,2.446,2.446,0,0,0,0,0,0,0,0,0,0,1.197,1.197,1.195,1.195,1.193,1.189,1.187,1.185,1.183,1.181,1.181,0,0,0,2.446,2.454,2.463,2.463,2.472,2.481,2.481,2.481,2.472,2.472,2.463,2.454,2.454,2.437,2.437,2.437,2.437,2.437,2.437,2.437,2.428,2.428,2.428,2.42,2.411,2.403,2.403,2.403,2.403,2.411,2.42,2.428,2.437,2.454,2.472,2.49,2.499,2.508,2.508,2.517,2.536,2.536,0,0,0,0,0,0,0,0,0,0,1.238,1.232,1.225,1.218,1.214,1.208,1.201,1.195,1.189,1.183,1.177,1.171,1.167,1.163,1.159,1.155,1.149,0,0,2.454,2.463,2.463,2.463,2.463,2.463,2.463,2.472,2.472,2.472,2.472,2.472,2.472,2.472,2.472,2.472,2.472,2.472,2.472,2.472,2.472,2.472,2.481,2.481,2.481,2.481,2.481,2.481,2.481,2.481,2.481,2.472,2.463,2.463,2.454,2.454,2.437,2.394,2.378,2.322,0,0,0,0,0,0,0,0,0,1.238,1.229,1.223,1.212,1.201,1.197,1.191,1.187,1.185,1.181,1.179,1.177,1.173,1.169,1.167,1.165,1.165,1.161,1.157,1.153,1.149,0,0,0,0,0,0,2.526,2.526,2.536,2.536,2.536,2.545,2.545,2.545,2.545,2.555,2.555,2.564,2.555,2.564,2.564,2.574,2.583,2.593,2.593,2.593,2.593,2.593,2.603,2.603,2.603,2.603,2.603,2.603,2.603,0,0,0,0,0,0,0,0,0,0,0,0,1.232,1.227,1.225,1.223,1.221,1.218,1.216,1.212,1.21,1.206,1.203,1.199,1.197,1.193,1.191,1.187,1.185,1.183,1.181,1.179,1.177,1.175,1.173,1.171,1.173,1.173,1.177,1.183,1.193,1.203,1.216,1.227,1.245,1.254,1.263,1.275,1.28,1.292,1.294,1.297,1.299,1.302,1.302,1.304,1.306,1.306,1.304,1.302,1.302,1.299,1.297
1.287,1.294,1.302,1.304,1.309,1.311,1.314,1.316,1.316,1.319,1.319,1.319,1.319,1.319,1.319,1.319,1.311,1.306,1.292,1.277,1.261,0,1.223,1.203,1.191,1.179,1.177,1.175,1.177,1.179,1.181,1.187,1.191,1.195,1.201,1.206,1.212,1.216,1.225,1.229,1.234,1.238,1.243,1.247,1.249,1.254,1.259,1.266,1.27,1.277,1.284,1.289,1.294,0,2.394,2.403,2.403,2.394,2.394,2.394,2.386,2.378,2.378,2.37,2.378,2.378,2.378,2.378,2.37,2.37,2.37,2.37,2.37,2.37,2.37,2.378,2.37,2.361,2.37,2.37,2.37,2.37,0,0,0,0,0,0,0,0,0,0,0,1.165,1.169,1.173,1.177,1.181,1.187,1.191,1.195,1.197,1.201,1.203,1.208,1.212,1.214,1.218,1.221,1.225,1.229,1.236,1.243,1.247,1.254,1.263,0,0,2.353,2.361,2.37,2.378,2.386,2.386,2.394,2.394,2.394,2.403,2.403,2.403,2.394,2.394,2.386,2.386,2.386,2.386,2.386,2.386,2.386,2.386,2.386,2.386,2.394,2.403,2.403,2.411,2.411,2.42,2.42,2.428,2.437,2.437,2.437,2.446,2.446,2.454,2.454,2.454,0,0,0,0,0,0,0,0,0,0,0,1.189,1.195,1.201,1.21,1.214,1.221,1.227,1.232,1.238,1.243,1.252,1.256,1.261,0,2.411,2.411,2.411,2.42,2.42,2.42,2.42,2.42,2.428,2.428,2.428,2.428,2.428,2.428,2.428,2.428,2.428,2.437,2.437,2.437,2.446,2.446,2.446,2.446,2.446,2.446,2.446,2.446,2.446,2.446,2.437,2.437,2.437,2.428,2.428,2.428,2.437,2.437,2.437,2.454,2.463,2.481,2.499,2.517,2.536,2.555,0,0,0,0,0,0,0,0,0,0,1.203,1.203,1.206,1.208,1.21,1.208,1.21,0,0,2.472,2.472,2.463,2.463,2.454,2.454,2.454,2.446,2.446,2.446,2.446,2.446,2.454,2.454,2.454,2.454,2.446,2.446,2.446,2.446,2.446,2.446,2.446,2.446,2.446,2.446,2.446,2.446,2.446,2.446,2.446,2.446,2.446,2.446,2.446,2.446,2.446,2.446,2.446,2.446,2.446,2.446,2.446,2.454,0,0,0,0,0,0,0,0,0,0,0,1.206,1.203,1.203,1.201,1.201,1.197,1.195,1.191,1.189,1.189,0,0,0,0,0,2.446,2.454,2.463,2.472,2.472,2.472,2.472,2.472,2.463,2.463,2.454,2.446,2.437,2.428,2.428,2.428,2.428,2.428,2.437,2.428,2.428,2.428,2.42,2.411,2.403,2.403,2.403,2.403,2.411,2.42,2.428,2.437,2.446,2.463,2.472,2.49,2.499,2.508,2.517,2.526,0,0,0,0,0,0,0,0,0,0,1.247,1.24,1.236,1.229,1.225,1.218,1.214,1.208,1.203,1.197,1.191,1.187,1.181,1.175,1.169,1.165,1.161,0,0,2.454,2.454,2.454,2.454,2.454,2.454,2.454,2.454,2.454,2.463,2.463,2.463,2.463,2.463,2.454,2.463,2.463,2.454,2.454,2.463,2.463,2.463,2.472,2.472,2.472,2.472,2.472,2.472,2.472,2.472,2.472,2.472,2.472,2.454,2.454,2.454,2.446,2.437,2.394,2.37,0,0,0,0,0,0,0,0,0,0,1.24,1.234,1.227,1.216,1.208,1.201,1.197,1.193,1.189,1.187,1.183,1.181,1.177,1.173,1.169,1.169,1.167,1.165,1.161,1.157,1.153,1.151,0,0,2.526,2.526,2.526,2.526,2.526,2.536,2.536,2.545,2.545,2.545,2.555,2.555,2.555,2.564,2.564,2.555,2.555,2.564,2.574,2.574,2.583,2.583,2.583,2.583,2.593,2.603,2.603,2.603,2.603,2.613,2.613,0,0,0,0,0,0,0,0,0,0,0,1.238,1.234,1.229,1.227,1.225,1.223,1.221,1.218,1.216,1.214,1.208,1.208,1.203,1.201,1.199,1.195,1.193,1.191,1.189,1.187,1.187,1.183,1.183,1.185,1.187,1.187,1.193,1.199,1.208,1.216,1.229,1.243,1.254,1.266,1.282,1.292,1.299,1.309,1.316,1.319,1.322,1.324,1.322,1.322,1.316,1.316,1.314,1.311,1.306,1.304,1.302,1.297,1.294
1.287,1.294,1.302,1.306,1.309,1.314,1.316,1.319,1.319,1.322,1.324,1.327,1.327,1.329,1.334,1.337,1.334,1.332,1.324,1.309,1.294,0,1.256,1.234,1.216,1.199,1.191,1.185,1.185,1.181,1.181,1.185,1.191,1.195,1.201,1.206,1.212,1.216,1.225,1.229,1.234,1.236,1.243,1.247,1.249,1.254,1.259,1.263,1.273,1.277,1.282,1.287,1.292,1.297,0,2.403,2.403,2.403,2.394,2.394,2.386,2.378,2.37,2.37,2.37,2.37,2.37,2.37,2.37,2.361,2.361,2.361,2.37,2.361,2.37,2.37,2.361,2.37,2.37,2.37,2.361,2.37,2.37,2.37,2.37,0,0,0,0,0,0,0,0,0,0,1.175,1.179,1.183,1.189,1.193,1.197,1.201,1.206,1.206,1.21,1.214,1.218,1.221,1.223,1.227,1.232,1.236,1.243,1.249,1.256,1.263,1.275,0,0,2.361,2.37,2.37,2.386,2.386,2.394,2.394,2.394,2.394,2.394,2.394,2.394,2.386,2.386,2.386,2.386,2.386,2.386,2.386,2.386,2.386,2.386,2.386,2.394,2.403,2.403,2.403,2.411,2.411,2.42,2.428,2.428,2.437,2.437,2.446,2.446,2.454,2.454,2.454,2.454,0,0,0,0,0,0,0,0,0,0,0,1.206,1.212,1.221,1.225,1.229,1.236,1.24,1.245,1.252,1.259,1.266,1.27,1.275,0,2.411,2.42,2.42,2.42,2.42,2.42,2.428,2.428,2.428,2.428,2.428,2.428,2.428,2.428,2.428,2.428,2.437,2.437,2.437,2.446,2.446,2.446,2.454,2.454,2.446,2.446,2.437,2.437,2.437,2.437,2.437,2.428,2.428,2.42,2.428,2.428,2.437,2.446,2.454,2.463,2.481,2.499,2.517,2.526,2.545,0,0,0,0,0,0,0,0,0,0,1.216,1.216,1.216,1.218,1.221,1.218,1.221,1.221,0,2.472,2.463,2.463,2.454,2.454,2.454,2.446,2.446,2.446,2.446,2.446,2.446,2.454,2.454,2.454,2.454,2.454,2.454,2.454,2.454,2.446,2.446,2.446,2.446,2.446,2.446,2.446,2.454,2.454,2.454,2.454,2.454,2.446,2.446,2.446,2.446,2.446,2.454,2.454,2.446,2.454,2.446,2.454,2.454,0,0,0,0,0,0,0,0,0,0,1.216,1.212,1.21,1.21,1.208,1.208,1.203,1.201,1.199,1.199,0,0,0,0,2.437,2.437,2.446,2.446,2.454,2.463,2.463,2.463,2.463,2.463,2.454,2.454,2.446,2.437,2.428,2.428,2.428,2.428,2.428,2.428,2.428,2.428,2.428,2.428,2.42,2.42,2.411,2.403,2.411,2.411,2.411,2.42,2.428,2.428,2.446,2.454,2.472,2.481,2.49,2.499,2.508,0,0,0,0,0,0,0,0,0,1.259,1.256,1.252,1.245,1.24,1.236,1.229,1.227,1.223,1.218,1.214,1.208,1.201,1.195,1.191,1.185,1.177,1.171,0,0,2.454,2.454,2.446,2.454,2.446,2.446,2.446,2.446,2.446,2.446,2.446,2.446,2.446,2.446,2.446,2.446,2.446,2.446,2.446,2.446,2.454,2.463,2.463,2.463,2.463,2.472,2.472,2.472,2.472,2.463,2.463,2.463,2.463,2.463,2.446,2.446,2.446,2.446,2.411,2.386,0,0,0,0,0,0,0,0,0,1.263,1.252,1.243,1.238,1.229,1.221,1.212,1.208,1.201,1.197,1.195,1.191,1.187,1.185,1.179,1.175,1.173,1.171,1.169,1.169,1.165,0,0,0,2.526,2.526,2.536,2.536,2.536,2.536,2.536,2.536,2.545,2.555,2.555,2.555,2.555,2.564,2.564,2.564,2.564,2.564,2.555,2.564,2.564,2.574,2.574,2.574,2.583,2.583,2.593,2.603,2.603,2.603,2.603,0,0,0,0,0,0,0,0,0,1.266,0,0,1.245,1.24,1.236,1.232,1.229,1.227,1.223,1.223,1.218,1.216,1.214,1.21,1.208,1.206,1.203,1.201,1.199,1.197,1.195,1.193,1.191,1.191,1.189,1.191,1.195,1.201,1.206,1.216,1.227,1.238,1.249,1.266,1.277,1.292,1.302,1.319,1.327,1.332,1.34,1.342,1.342,1.342,1.34,1.337,1.332,1.324,1.322,1.316,1.311,1.306,1.304,1.299,1.294,1.292
1.284,1.292,1.299,1.304,1.309,1.314,1.316,1.322,1.324,1.327,1.329,1.332,1.334,1.337,1.342,1.345,1.35,1.35,1.345,1.334,1.322,1.311,0,1.27,1.249,1.229,1.216,1.206,1.199,1.193,1.189,1.189,1.191,1.195,1.201,1.208,1.21,1.216,1.223,1.229,1.234,1.238,1.238,1.245,1.249,1.254,1.259,1.263,1.27,1.275,1.282,1.287,1.289,1.294,1.299,0,0,2.403,2.394,2.394,2.386,2.378,2.37,2.37,2.37,2.37,2.37,2.37,2.37,2.361,2.361,2.361,2.361,2.361,2.361,2.361,2.37,2.37,2.361,2.37,2.37,2.37,2.37,2.361,2.37,2.37,0,0,0,0,0,0,0,0,0,0,1.181,1.185,1.191,1.195,1.199,1.203,1.206,1.21,1.214,1.218,1.221,1.223,1.225,1.229,1.236,1.24,1.245,1.252,1.259,1.268,1.277,1.289,1.302,2.361,2.37,2.37,2.386,2.386,2.394,2.394,2.394,2.394,2.386,2.386,2.394,2.386,2.386,2.386,2.386,2.386,2.386,2.386,2.378,2.386,2.386,2.386,2.394,2.403,2.403,2.403,2.411,2.411,2.42,2.428,2.428,2.437,2.437,2.446,2.446,2.446,2.446,2.446,2.446,2.446,2.446,0,0,0,0,0,0,0,0,0,1.221,1.227,1.234,1.238,1.243,1.249,1.252,1.256,1.261,1.268,1.273,1.28,1.284,1.289,0,2.42,2.42,2.42,2.42,2.428,2.428,2.428,2.428,2.428,2.428,2.428,2.428,2.428,2.428,2.428,2.437,2.437,2.446,2.446,2.446,2.446,2.454,2.454,2.446,2.446,2.437,2.437,2.437,2.437,2.437,2.428,2.428,2.42,2.428,2.428,2.437,2.446,2.454,2.472,2.481,2.49,2.508,2.517,2.536,2.545,0,0,0,0,0,0,0,0,0,0,1.232,1.229,1.229,1.229,1.232,1.232,1.232,0,0,2.463,2.454,2.454,2.454,2.446,2.446,2.446,2.446,2.446,2.446,2.454,2.454,2.454,2.463,2.454,2.454,2.454,2.454,2.454,2.454,2.446,2.446,2.446,2.446,2.446,2.454,2.454,2.454,2.454,2.454,2.454,2.454,2.454,2.454,2.454,2.454,2.454,2.454,2.454,2.454,2.454,2.454,2.463,0,0,0,0,0,0,0,0,0,0,0,1.223,1.221,1.218,1.218,1.216,1.214,1.212,1.21,1.208,0,0,0,2.437,2.437,2.437,2.437,2.446,2.454,2.454,2.454,2.454,2.454,2.454,2.446,2.446,2.437,2.428,2.428,2.42,2.42,2.42,2.428,2.428,2.428,2.428,2.428,2.428,2.428,2.42,2.411,2.411,2.411,2.411,2.411,2.42,2.42,2.428,2.437,2.454,2.463,2.472,2.472,0,0,0,0,0,0,0,0,0,1.275,1.268,1.263,1.259,1.256,1.249,1.245,1.243,1.238,1.236,1.234,1.227,1.223,1.216,1.212,1.206,1.199,1.193,1.185,0,0,0,2.454,2.446,2.446,2.446,2.446,2.446,2.437,2.437,2.437,2.437,2.437,2.437,2.437,2.437,2.437,2.437,2.437,2.446,2.446,2.446,2.454,2.463,2.463,2.463,2.463,2.472,2.472,2.463,2.463,2.463,2.454,2.454,2.454,2.446,2.446,2.437,2.437,2.437,2.386,0,0,0,0,0,0,0,0,0,1.275,1.266,1.256,1.249,1.243,1.236,1.225,1.216,1.212,1.208,1.203,1.199,1.195,1.191,1.187,1.183,1.179,1.175,1.173,1.173,1.171,0,0,2.526,0,2.526,2.536,2.536,2.536,2.536,2.536,2.545,2.545,2.555,2.564,2.564,2.564,2.564,2.564,2.564,2.564,2.564,2.555,2.555,2.555,2.564,2.564,2.564,2.574,2.583,2.583,2.593,2.603,2.613,0,0,0,0,0,0,0,0,0,1.284,1.277,1.27,1.263,1.254,1.247,1.243,1.238,1.234,1.229,1.227,1.225,1.223,1.221,1.218,1.216,1.212,1.21,1.208,1.206,1.206,1.206,1.208,1.21,1.21,1.212,1.216,1.216,1.223,1.232,1.236,1.243,1.252,1.263,1.275,1.287,0,1.311,1.322,1.332,1.342,1.35,1.353,1.355,1.358,1.355,1.353,1.347,1.342,1.334,1.329,1.324,1.316,1.311,1.306,1.302,1.299,1.294,1.292
1.284,1.292,1.299,1.304,1.309,1.314,1.316,1.322,1.327,1.329,1.332,1.334,1.34,1.345,1.35,1.353,1.358,1.363,1.361,1.353,1.347,0,0,0,1.289,1.27,1.256,1.24,1.232,1.221,1.21,1.206,1.203,1.203,1.206,1.206,1.212,1.218,1.223,1.227,1.234,1.236,1.238,1.245,1.249,1.254,1.259,1.263,1.27,1.275,1.28,1.284,1.287,1.292,1.297,1.299,1.304,1.309,0,0,0,0,2.37,2.37,2.37,2.37,2.37,2.361,2.361,2.353,2.353,2.353,2.353,2.353,2.353,2.353,2.353,2.353,2.353,2.353,2.353,2.361,2.361,2.361,2.361,2.37,2.378,2.378,2.386,2.386,0,0,0,0,0,0,0,0,0,0,1.201,1.203,1.208,1.21,1.216,1.221,1.223,1.225,1.227,1.232,1.236,1.243,1.249,1.254,1.263,1.27,1.282,1.292,1.302,1.311,0,2.37,2.378,2.386,2.386,2.386,2.394,2.394,2.386,2.386,2.386,2.394,2.394,2.386,2.386,2.386,2.386,2.386,2.378,2.378,2.378,2.386,2.386,2.403,2.403,2.403,2.411,2.411,2.42,2.428,2.428,2.437,2.437,2.437,2.446,2.446,2.446,2.446,2.446,2.446,0,0,0,0,0,0,0,0,0,0,1.24,1.243,1.247,1.252,1.256,1.261,1.263,1.266,1.273,1.277,1.282,1.287,1.292,1.297,1.302,0,2.428,2.428,2.428,2.42,2.428,2.428,2.428,2.428,2.428,2.42,2.428,2.42,2.428,2.428,2.437,2.437,2.437,2.446,2.446,2.446,2.446,2.446,2.446,2.446,2.437,2.437,2.437,2.437,2.428,2.428,2.428,2.428,2.428,2.428,2.437,2.446,2.454,2.472,2.481,2.49,2.508,2.517,2.526,0,0,0,0,0,0,0,0,0,0,1.243,1.243,1.243,1.243,1.243,1.245,1.245,1.245,0,0,2.463,2.454,2.454,2.454,2.454,2.446,2.446,2.446,2.446,2.446,2.454,2.463,2.463,2.463,2.463,2.463,2.463,2.463,2.454,2.454,2.446,2.437,2.437,2.437,2.446,2.446,2.454,2.454,2.454,2.454,2.454,2.454,2.454,2.454,2.454,2.454,2.454,2.454,2.454,2.454,2.454,2.454,2.454,0,0,0,0,0,0,0,0,0,0,0,1.236,1.234,1.232,1.229,1.227,1.225,1.223,1.223,1.218,0,0,0,2.437,2.437,2.437,2.437,2.437,2.446,2.446,2.446,2.446,2.454,2.446,2.446,2.437,2.437,2.428,2.428,2.42,2.42,2.42,2.42,2.428,2.428,2.428,2.428,2.428,2.428,2.42,2.42,2.411,2.411,2.411,2.42,2.42,2.42,2.428,2.437,2.446,2.454,2.463,2.463,0,0,0,0,0,0,0,0,0,1.28,1.273,1.27,1.266,1.261,1.256,1.254,1.249,1.247,1.245,1.24,1.238,1.234,1.229,1.223,1.216,1.208,1.203,0,0,2.463,2.454,2.454,2.454,2.446,2.446,2.446,2.437,2.437,2.428,2.428,2.437,2.437,2.437,2.437,2.437,2.446,2.437,2.446,2.446,2.446,2.454,2.454,2.463,2.463,2.463,2.463,2.472,2.472,2.463,2.454,2.454,2.454,2.446,2.446,2.446,2.437,2.437,0,0,0,0,0,0,0,0,0,1.324,0,0,1.273,1.266,1.254,1.247,1.24,1.234,1.227,1.221,1.216,1.212,1.208,1.203,1.199,1.195,1.191,1.187,1.181,1.177,0,0,0,0,2.526,2.536,2.536,2.536,2.536,2.536,2.536,2.536,2.545,2.545,2.555,2.555,2.564,2.574,2.574,2.574,2.574,2.574,2.564,2.564,2.555,2.555,2.555,2.555,2.555,2.564,2.574,2.574,2.583,2.593,0,0,0,0,0,0,0,0,0,1.297,1.292,1.287,1.28,1.273,1.268,1.261,1.252,1.247,1.243,1.238,1.234,1.229,1.227,1.225,1.223,1.221,1.218,1.216,1.216,1.218,1.216,1.218,1.223,1.227,1.232,1.238,1.243,1.247,1.249,1.261,1.27,1.275,1.282,1.289,1.302,1.309,0,1.332,1.34,1.347,1.353,1.361,1.366,1.366,1.363,1.361,1.358,1.353,1.347,1.34,1.332,1.324,1.319,1.314,1.311,1.306,1.302,1.299,1.294,1.292
1.284,1.292,1.299,1.304,1.309,1.314,1.319,1.322,1.327,1.332,1.337,1.34,1.342,1.35,1.353,1.361,1.366,1.372,1.374,1.372,1.366,1.361,1.353,0,0,0,0,0,1.273,1.263,1.247,1.238,1.229,1.225,1.223,1.218,1.221,1.221,1.223,1.229,1.234,1.236,1.24,1.245,1.249,1.254,1.259,1.263,1.268,1.275,1.28,1.282,1.287,1.292,1.294,1.299,1.302,1.306,1.311,1.319,0,0,0,2.37,2.361,2.361,2.361,2.361,2.353,2.353,2.345,2.345,2.345,2.353,2.345,2.345,2.345,2.345,2.345,2.345,2.353,2.353,2.353,2.353,2.361,2.37,2.37,2.37,2.378,2.378,2.378,2.37,0,0,0,0,0,0,0,0,0,1.206,1.21,1.212,1.216,1.221,1.223,1.225,1.227,1.232,1.238,1.245,1.252,1.259,1.266,1.275,1.284,1.294,1.304,1.311,1.319,0,0,2.378,2.386,2.386,2.386,2.394,2.394,2.394,2.394,2.386,2.386,2.386,2.386,2.386,2.378,2.378,2.378,2.378,2.378,2.386,2.386,2.403,2.403,2.403,2.411,2.411,2.42,2.428,2.428,2.428,2.437,2.437,2.437,2.446,2.437,2.446,2.437,2.437,2.437,2.437,0,0,0,0,0,0,0,0,0,1.261,1.263,1.263,1.268,1.273,1.275,1.277,1.282,1.287,1.289,1.294,1.299,1.304,1.309,1.314,0,0,2.428,2.428,2.42,2.42,2.42,2.42,2.42,2.42,2.42,2.42,2.42,2.428,2.428,2.437,2.437,2.437,2.446,2.446,2.446,2.446,2.446,2.437,2.437,2.437,2.437,2.428,2.428,2.428,2.428,2.428,2.428,2.437,2.437,2.446,2.454,2.463,2.472,2.481,2.49,2.499,2.499,0,0,0,0,0,0,0,0,0,0,1.256,1.254,1.254,1.254,1.259,1.259,1.259,1.259,0,0,2.463,2.454,2.454,2.454,2.454,2.446,2.446,2.446,2.446,2.446,2.454,2.463,2.463,2.463,2.463,2.463,2.463,2.463,2.454,2.446,2.446,2.437,2.437,2.437,2.446,2.446,2.454,2.454,2.454,2.454,2.454,2.454,2.454,2.454,2.454,2.454,2.454,2.454,2.454,2.454,2.446,2.446,2.454,2.454,0,0,0,0,0,0,0,0,0,0,1.249,1.247,1.245,1.243,1.238,1.238,1.236,1.234,0,0,0,0,2.437,2.437,2.437,2.437,2.446,2.446,2.446,2.446,2.437,2.446,2.446,2.437,2.437,2.437,2.428,2.428,2.42,2.42,2.42,2.42,2.42,2.428,2.428,2.428,2.428,2.428,2.428,2.42,2.42,2.42,2.42,2.42,2.42,2.428,2.428,2.437,2.437,2.446,2.454,0,0,0,0,0,0,0,0,0,1.294,1.287,1.28,1.275,1.27,1.268,1.263,1.259,1.256,1.252,1.252,1.249,1.245,1.243,1.238,1.232,1.227,1.218,0,2.463,2.463,2.463,2.454,2.454,2.446,2.446,2.437,2.437,2.428,2.428,2.428,2.428,2.437,2.437,2.437,2.437,2.437,2.437,2.446,2.446,2.446,2.446,2.446,2.454,2.454,2.463,2.463,2.463,2.463,2.463,2.463,2.454,2.454,2.446,2.446,2.437,2.437,2.428,2.428,2.437,0,0,0,0,0,0,0,0,0,0,1.294,1.28,1.273,1.261,1.254,1.247,1.238,1.232,1.227,1.221,1.216,1.212,1.21,1.206,1.201,0,0,1.185,1.181,0,2.517,2.517,2.526,2.536,2.536,2.536,2.536,2.536,2.545,2.536,2.545,2.545,2.555,2.555,2.564,2.574,2.574,2.574,2.574,2.574,2.574,2.564,2.555,2.555,2.555,2.545,2.545,2.555,2.564,2.574,2.574,2.583,0,0,0,0,0,0,0,0,0,1.306,1.299,1.294,1.289,1.284,1.277,1.273,1.266,1.259,1.252,1.249,1.243,1.238,1.236,1.234,1.232,1.229,1.229,1.229,1.232,1.232,1.236,1.24,1.245,1.252,1.261,1.268,1.275,1.28,1.287,1.289,1.302,1.309,1.314,0,1.327,1.332,1.34,1.345,1.355,1.358,1.363,1.369,1.369,1.372,1.369,1.366,1.361,1.355,1.347,1.342,1.334,1.327,1.322,1.316,1.311,1.309,1.304,1.302,1.299,1.297,1.292
1.287,1.294,1.299,1.304,1.309,1.316,1.319,1.324,1.329,1.334,1.34,1.345,1.347,1.353,1.358,1.366,1.372,1.374,1.38,1.38,1.38,1.377,1.374,1.369,1.358,1.35,0,0,0,0,0,1.282,1.275,1.268,1.263,1.254,1.249,1.247,1.245,1.245,1.245,1.247,1.247,1.247,1.252,1.254,1.259,1.266,1.27,1.275,1.277,1.282,1.287,1.289,1.292,1.297,1.299,1.306,1.311,1.319,1.324,1.329,0,0,2.361,2.353,2.353,2.353,2.353,2.345,2.345,2.345,2.345,2.345,2.345,2.337,2.337,2.345,2.345,2.345,2.353,2.353,2.353,2.353,2.361,2.361,2.361,2.378,2.386,2.378,2.378,2.37,2.361,0,0,0,0,0,0,0,0,0,1.21,1.212,1.216,1.221,1.225,1.225,1.229,1.234,1.24,1.247,1.254,1.263,1.27,1.28,1.289,1.299,1.306,1.314,1.319,1.327,1.332,0,2.386,2.386,2.386,2.386,2.394,2.394,2.394,2.394,2.386,2.386,2.386,2.378,2.378,2.378,2.378,2.378,2.378,2.386,2.386,2.394,2.403,2.403,2.403,2.411,2.42,2.42,2.428,2.428,2.428,2.428,2.437,2.437,2.437,2.428,2.428,2.428,2.437,2.437,0,0,0,0,0,0,0,0,0,1.273,1.275,1.275,1.277,1.282,1.287,1.287,1.292,1.294,1.299,1.302,1.306,1.311,1.316,1.322,0,0,2.428,2.428,2.42,2.42,2.42,2.411,2.411,2.411,2.411,2.411,2.42,2.428,2.428,2.428,2.437,2.437,2.446,2.446,2.446,2.446,2.446,2.437,2.428,2.428,2.428,2.428,2.428,2.428,2.428,2.428,2.437,2.437,2.437,2.446,2.446,2.454,2.463,2.472,2.472,2.481,2.481,2.49,0,0,0,0,0,0,0,0,0,1.268,1.268,1.268,1.268,1.27,1.273,1.275,1.275,0,0,2.454,2.454,2.454,2.454,2.454,2.454,2.454,2.446,2.437,2.437,2.446,2.454,2.463,2.463,2.454,2.454,2.454,2.454,2.454,2.446,2.437,2.437,2.437,2.437,2.437,2.446,2.446,2.446,2.454,2.454,2.454,2.454,2.454,2.446,2.446,2.446,2.454,2.454,2.446,2.446,2.446,2.446,2.446,2.454,0,0,0,0,0,0,0,0,0,0,0,1.261,1.259,1.254,1.252,1.249,1.249,0,0,0,0,2.446,2.437,2.437,2.437,2.437,2.446,2.446,2.437,2.437,2.437,2.437,2.437,2.437,2.428,2.428,2.428,2.42,2.42,2.42,2.42,2.42,2.42,2.42,2.428,2.428,2.428,2.428,2.428,2.428,2.428,2.428,2.42,2.42,2.428,2.428,2.428,2.437,2.437,2.446,2.446,2.454,0,0,0,0,0,0,0,0,0,1.292,1.284,1.282,1.277,1.273,1.268,1.266,1.263,1.261,1.259,1.259,1.256,1.252,1.247,1.245,1.238,0,0,2.463,2.454,2.463,2.454,2.446,2.446,2.437,2.437,2.437,2.428,2.428,2.428,2.428,2.437,2.437,2.437,2.437,2.437,2.437,2.446,2.446,2.446,2.446,2.446,2.446,2.454,2.454,2.454,2.463,2.463,2.463,2.454,2.454,2.446,2.446,2.437,2.437,2.428,2.42,2.411,2.42,0,0,0,0,0,0,0,0,0,1.309,1.299,1.287,1.277,1.268,1.259,1.254,1.245,1.236,1.232,1.225,1.221,1.216,1.214,1.21,0,0,0,0,0,2.517,2.526,2.526,2.526,2.536,2.545,2.545,2.545,2.545,2.545,2.545,2.545,2.555,2.555,2.564,2.574,2.574,2.583,2.583,2.583,2.583,2.574,2.564,2.564,2.555,2.555,2.545,2.545,0,0,0,0,0,0,0,0,0,0,1.327,1.324,1.319,1.314,1.309,1.304,1.299,1.294,1.289,1.282,1.277,1.273,1.266,1.259,1.256,1.249,1.247,1.243,1.243,1.245,1.245,1.247,1.249,1.256,1.261,1.27,1.275,1.28,1.289,1.297,1.304,1.311,1.319,1.324,0,0,0,1.353,0,1.361,1.363,1.369,1.369,1.374,1.374,1.374,1.374,1.374,1.372,1.369,1.363,1.358,1.353,1.345,1.34,1.332,1.327,1.322,1.316,1.314,1.309,1.306,1.304,1.299,1.297,1.294
1.289,1.294,1.302,1.306,1.311,1.319,1.322,1.327,1.334,1.34,1.342,1.347,1.353,1.358,1.361,1.369,1.374,1.377,1.383,1.385,1.388,1.391,1.394,1.391,1.388,1.383,1.38,1.372,0,0,0,0,0,0,1.306,1.297,1.292,1.284,1.282,1.282,1.28,1.275,1.273,1.268,1.268,1.27,1.27,1.273,1.273,1.273,1.277,1.282,1.287,1.289,1.292,1.294,1.299,1.306,1.311,1.319,1.327,1.332,1.34,1.345,2.353,2.353,2.345,2.345,2.345,2.337,2.337,2.337,2.337,2.337,2.337,2.337,2.337,2.337,2.337,2.337,2.337,2.345,2.345,2.345,2.353,2.353,2.361,2.37,2.37,2.37,2.37,2.353,2.337,2.329,2.314,0,0,0,0,0,0,0,0,0,1.218,1.223,1.227,1.229,1.234,1.238,1.245,1.254,1.261,1.268,1.275,1.284,1.294,1.304,1.311,1.316,1.322,1.327,1.334,1.34,0,0,2.386,2.386,2.386,2.394,2.386,2.386,2.386,2.386,2.386,2.378,2.37,2.37,2.37,2.37,2.378,2.378,2.386,2.394,2.394,2.403,2.403,2.411,2.411,2.42,2.42,2.42,2.411,2.42,2.42,2.42,2.42,2.42,2.42,2.42,2.42,2.42,2.42,0,0,0,0,0,0,0,0,1.28,1.282,1.284,1.287,1.289,1.294,1.297,1.299,1.304,1.309,1.311,1.314,1.319,1.327,1.329,1.334,1.34,0,2.428,2.42,2.42,2.42,2.411,2.411,2.411,2.411,2.411,2.411,2.42,2.428,2.428,2.428,2.437,2.437,2.437,2.446,2.446,2.437,2.428,2.428,2.428,2.428,2.428,2.428,2.428,2.428,2.428,2.428,2.437,2.437,2.437,2.446,2.446,2.454,2.454,2.454,2.463,2.472,2.472,0,0,0,0,0,0,0,0,0,1.282,1.282,1.28,1.282,1.284,1.289,1.289,1.289,0,0,2.446,2.446,2.446,2.446,2.446,2.446,2.446,2.437,2.437,2.437,2.446,2.454,2.454,2.454,2.454,2.446,2.454,2.454,2.454,2.446,2.437,2.437,2.437,2.437,2.437,2.437,2.446,2.446,2.446,2.446,2.446,2.446,2.446,2.437,2.446,2.446,2.446,2.446,2.446,2.437,2.437,2.446,2.446,2.446,0,0,0,0,0,0,0,0,0,0,1.277,1.275,1.273,1.268,1.266,1.263,1.263,1.261,0,0,2.446,2.446,2.437,2.437,2.437,2.437,2.437,2.437,2.437,2.428,2.428,2.428,2.428,2.428,2.428,2.428,2.42,2.42,2.42,2.42,2.42,2.42,2.42,2.42,2.42,2.428,2.428,2.428,2.428,2.428,2.428,2.428,2.428,2.428,2.428,2.428,2.428,2.428,2.437,2.437,2.446,0,0,0,0,0,0,0,0,0,1.306,1.299,1.294,1.289,1.284,1.282,1.277,1.273,1.27,1.268,1.268,1.268,1.263,1.261,1.259,1.256,0,2.454,2.454,2.454,2.454,2.454,2.454,2.446,2.446,2.437,2.437,2.428,2.428,2.428,2.428,2.428,2.437,2.437,2.437,2.437,2.437,2.446,2.446,2.454,2.454,2.446,2.446,2.454,2.463,2.454,2.454,2.454,2.454,2.454,2.454,2.446,2.446,2.437,2.437,2.428,2.428,0,0,0,0,0,0,0,1.345,1.34,1.334,1.327,1.322,1.311,1.302,1.289,1.284,1.273,1.266,1.256,1.249,1.243,1.234,1.227,1.223,1.221,1.218,0,0,0,0,0,0,2.517,2.526,2.526,2.526,2.536,2.536,2.545,2.545,2.545,2.545,2.545,2.555,2.555,2.564,2.564,2.574,2.583,2.583,2.583,2.583,2.583,2.574,2.564,2.564,2.555,2.555,2.545,2.545,0,0,0,0,0,0,0,0,1.342,1.337,1.329,1.324,1.319,1.316,1.311,1.306,1.302,1.297,1.294,1.287,1.282,1.277,1.273,1.268,1.263,1.261,1.256,1.256,1.259,1.261,1.266,1.27,1.277,1.287,1.297,1.306,1.311,1.316,1.327,1.334,1.342,1.35,1.355,1.361,1.366,1.377,1.383,1.385,1.385,1.385,1.388,1.388,1.388,1.385,1.383,1.38,1.377,1.374,1.372,1.366,1.361,1.355,1.35,1.345,1.34,1.334,1.329,1.322,1.319,1.314,1.311,1.309,1.306,1.302,1.299,1.297
1.294,1.299,1.304,1.309,1.314,1.322,1.324,1.329,1.334,1.34,1.345,1.35,1.355,1.361,1.363,1.369,1.377,1.383,1.385,1.391,1.394,1.397,1.402,1.405,1.405,1.405,1.408,1.405,1.4,1.394,1.385,0,0,0,0,0,0,1.327,1.322,1.319,1.316,1.311,1.306,1.302,1.297,1.294,1.292,1.289,1.287,1.282,1.284,1.284,1.284,1.289,1.292,1.297,1.302,1.306,1.314,1.319,1.327,1.334,1.34,1.347,1.355,0,2.345,2.337,2.337,2.329,2.329,2.329,2.329,2.329,2.329,2.329,2.329,2.337,2.337,2.337,2.337,2.337,2.337,2.337,2.337,2.337,2.337,2.345,2.345,2.337,2.337,2.322,2.306,2.291,2.275,2.253,0,0,0,0,0,0,0,0,0,0,1.229,1.234,1.238,1.245,1.254,1.259,1.268,1.275,1.284,1.292,1.302,1.309,1.314,1.319,1.327,1.332,1.337,1.342,1.347,1.353,0,0,2.386,2.386,2.386,2.386,2.386,2.386,2.386,2.378,2.378,2.378,2.378,2.378,2.378,2.386,2.386,2.394,2.394,2.403,2.403,2.411,2.411,2.411,2.411,2.403,2.411,2.411,2.411,2.411,2.411,2.411,2.411,2.411,2.411,2.411,2.411,0,0,0,0,0,0,0,0,1.287,1.289,1.292,1.294,1.299,1.302,1.304,1.309,1.311,1.316,1.319,1.322,1.327,1.332,1.337,1.342,1.347,1.353,0,2.42,2.42,2.42,2.411,2.411,2.411,2.411,2.411,2.411,2.411,2.42,2.428,2.428,2.428,2.428,2.428,2.437,2.437,2.437,2.428,2.42,2.42,2.42,2.42,2.428,2.428,2.428,2.42,2.428,2.428,2.428,2.428,2.428,2.437,2.437,2.437,2.437,2.437,2.437,2.437,0,0,0,0,0,0,0,0,0,1.297,1.294,1.294,1.297,1.299,1.306,1.306,1.309,1.309,0,0,2.437,2.437,2.446,2.446,2.446,2.446,2.437,2.437,2.437,2.437,2.446,2.454,2.446,2.446,2.446,2.446,2.454,2.446,2.446,2.437,2.428,2.428,2.428,2.437,2.437,2.437,2.437,2.437,2.446,2.446,2.446,2.446,2.437,2.437,2.437,2.446,2.446,2.437,2.437,2.437,2.437,2.446,2.446,0,0,0,0,0,0,0,0,1.297,1.294,1.292,1.289,1.284,1.282,1.277,1.275,1.275,0,0,2.437,2.446,2.446,2.437,2.437,2.437,2.437,2.437,2.437,2.428,2.42,2.42,2.428,2.428,2.42,2.42,2.42,2.42,2.42,2.42,2.42,2.42,2.42,2.42,2.42,2.42,2.428,2.428,2.428,2.428,2.428,2.428,2.437,2.437,2.437,2.437,2.437,2.437,2.437,2.437,2.437,0,0,0,0,0,0,0,0,0,1.322,1.314,1.306,1.302,1.294,1.292,1.287,1.284,1.282,1.277,1.275,1.275,1.275,1.273,1.27,1.268,0,2.454,2.454,2.454,2.454,2.454,2.454,2.446,2.446,2.446,2.437,2.437,2.428,2.428,2.428,2.428,2.428,2.437,2.437,2.437,2.446,2.446,2.446,2.454,2.454,2.454,2.454,2.454,2.454,2.454,2.446,2.446,2.446,2.454,2.446,2.446,2.437,2.437,2.437,2.428,2.428,0,0,0,0,0,0,0,1.345,1.342,1.337,1.332,1.327,1.322,1.314,1.304,1.294,1.289,1.28,1.27,1.263,1.256,1.247,1.238,1.232,1.227,1.223,1.223,0,0,2.536,2.536,2.526,2.526,2.526,2.526,2.526,2.526,2.536,2.536,2.536,2.545,2.545,2.545,2.555,2.555,2.564,2.564,2.564,2.574,2.583,2.583,2.593,2.593,2.583,2.574,2.574,2.564,2.564,2.555,0,0,0,0,0,0,0,1.363,1.355,1.35,1.345,1.34,1.332,1.324,1.322,1.316,1.314,1.309,1.306,1.302,1.299,1.294,1.292,1.287,1.282,1.277,1.275,1.275,1.275,1.277,1.282,1.289,1.294,1.304,1.314,1.322,1.332,1.34,1.347,1.353,1.363,1.369,0,1.385,1.394,1.4,1.402,1.408,1.414,1.414,1.411,1.408,1.402,1.4,1.394,1.391,1.385,1.383,1.377,1.374,1.372,1.366,1.358,1.353,1.347,1.342,1.337,1.334,1.329,1.324,1.319,1.316,1.314,1.311,1.309,1.304,1.302,1.299
1.302,1.304,1.309,1.311,1.316,1.322,1.327,1.332,1.337,1.342,1.347,1.35,1.355,1.361,1.366,1.372,1.377,1.383,1.388,1.391,1.397,1.402,1.408,1.411,1.417,1.42,1.426,1.429,1.429,1.426,1.423,1.42,1.411,1.405,0,0,0,0,0,1.358,1.353,1.347,1.34,1.337,1.332,1.324,1.319,1.311,1.306,1.299,1.297,1.294,1.294,1.297,1.297,1.302,1.304,1.309,1.316,1.322,1.329,1.334,1.342,1.347,1.355,1.361,0,2.329,2.329,2.322,2.322,2.322,2.314,2.322,2.322,2.322,2.322,2.322,2.329,2.329,2.337,2.337,2.329,2.329,2.329,2.329,2.329,2.329,2.322,2.322,2.306,2.298,2.275,2.268,2.253,2.238,0,0,0,0,0,0,0,0,0,0,0,0,1.282,1.282,1.284,1.287,1.287,1.292,1.297,1.302,1.309,1.314,1.319,1.324,1.329,1.334,1.34,1.347,1.35,1.355,1.363,0,2.378,2.386,2.386,2.386,2.386,2.386,2.378,2.378,2.378,2.378,2.378,2.378,2.378,2.386,2.386,2.394,2.394,2.403,2.403,2.403,2.403,2.403,2.403,2.394,2.394,2.394,2.394,2.394,2.394,2.394,2.394,2.394,2.403,2.403,2.394,0,0,0,0,0,0,0,0,1.297,1.299,1.304,1.304,1.306,1.309,1.311,1.316,1.319,1.322,1.327,1.329,1.334,1.34,1.345,1.35,1.353,1.358,0,2.42,2.42,2.411,2.411,2.403,2.403,2.403,2.403,2.403,2.411,2.411,2.42,2.42,2.428,2.428,2.428,2.428,2.428,2.428,2.42,2.42,2.42,2.42,2.411,2.42,2.42,2.42,2.42,2.42,2.42,2.42,2.42,2.42,2.42,2.428,2.428,2.428,2.428,2.42,2.42,2.42,0,0,0,0,0,0,0,0,1.309,1.309,1.309,1.309,1.314,1.322,1.324,1.324,1.327,0,0,2.42,2.428,2.437,2.437,2.437,2.446,2.437,2.437,2.437,2.446,2.454,2.454,2.446,2.446,2.446,2.446,2.446,2.446,2.446,2.437,2.428,2.428,2.437,2.437,2.437,2.437,2.437,2.437,2.446,2.446,2.446,2.437,2.437,2.437,2.437,2.446,2.446,2.437,2.437,2.437,2.437,2.437,2.446,0,0,0,0,0,0,0,0,1.314,1.309,1.309,1.304,1.299,1.297,1.294,1.292,0,0,0,2.446,2.446,2.454,2.446,2.437,2.437,2.437,2.437,2.437,2.42,2.42,2.42,2.42,2.42,2.42,2.42,2.42,2.42,2.42,2.42,2.42,2.42,2.42,2.42,2.42,2.428,2.428,2.428,2.428,2.437,2.437,2.437,2.437,2.437,2.437,2.437,2.437,2.437,2.437,2.437,0,0,0,0,0,0,0,0,1.345,1.337,1.329,1.322,1.314,1.309,1.304,1.299,1.297,1.292,1.289,1.287,1.284,1.282,1.282,1.28,0,0,2.446,2.446,2.446,2.446,2.454,2.454,2.446,2.446,2.446,2.437,2.437,2.437,2.428,2.428,2.428,2.428,2.437,2.437,2.446,2.446,2.446,2.454,2.454,2.454,2.454,2.454,2.454,2.454,2.454,2.454,2.446,2.437,2.446,2.446,2.446,2.437,2.428,2.428,2.42,2.428,2.42,0,0,0,0,0,0,0,1.329,1.327,1.322,1.319,1.316,1.311,1.306,1.304,1.299,1.294,1.284,1.275,1.268,1.259,1.249,1.243,1.234,1.229,1.227,0,0,2.545,2.536,2.536,2.536,2.526,2.526,2.526,2.526,2.526,2.526,2.536,2.536,2.545,2.545,2.545,2.555,2.555,2.564,2.564,2.574,2.574,2.583,2.593,2.593,2.593,2.593,2.574,2.574,0,0,0,0,0,0,0,0,1.374,1.369,1.363,1.355,1.353,1.347,1.342,1.334,1.329,1.324,1.319,1.316,1.314,1.309,1.306,1.304,1.302,1.299,1.297,1.292,1.292,1.292,1.294,1.297,1.302,1.311,1.322,1.329,1.34,1.35,1.358,1.369,1.377,1.383,1.388,1.397,1.405,1.414,1.42,1.426,1.429,1.429,1.432,1.435,1.432,1.426,1.417,1.411,1.405,1.4,1.394,1.388,1.383,1.377,1.374,1.369,1.363,1.358,1.353,1.347,1.342,1.34,1.334,1.329,1.327,1.322,1.319,1.316,1.314,1.311,1.309,1.304,1.302
1.309,1.311,1.314,1.319,1.322,1.327,1.329,1.334,1.34,1.345,1.35,1.353,1.358,1.363,1.369,1.372,1.377,1.383,1.388,1.394,1.397,1.402,1.408,1.411,1.42,1.426,1.432,1.435,1.438,1.444,1.447,1.45,1.45,1.444,1.441,1.432,1.423,1.417,1.408,0,0,0,1.38,1.372,1.366,1.358,1.35,0,1.329,1.319,1.311,1.309,1.304,1.302,1.302,1.304,1.306,1.311,1.319,1.327,1.332,1.34,1.345,1.35,1.358,1.363,1.372,1.38,0,2.314,2.314,0,2.314,2.314,2.314,2.314,2.314,2.314,2.314,2.322,2.329,2.329,2.322,2.322,2.322,2.322,2.322,2.322,2.322,2.314,2.306,2.291,2.275,2.261,2.246,2.238,0,0,0,0,0,0,0,0,0,0,0,0,1.332,1.327,1.319,1.316,1.311,1.314,1.314,1.316,1.319,1.324,1.327,1.332,1.332,1.337,1.345,1.35,1.355,1.361,1.369,1.374,0,0,2.386,2.386,2.386,2.386,2.378,2.378,2.378,2.378,2.378,2.378,2.378,2.386,2.386,2.394,2.403,2.403,2.403,2.403,2.403,2.394,2.394,2.394,2.394,2.386,2.386,2.386,2.386,2.394,2.394,2.394,2.394,2.394,2.394,0,0,0,0,0,0,0,0,0,0,1.327,1.324,1.322,1.322,1.322,1.324,1.329,1.332,1.334,1.34,1.342,1.347,1.35,1.355,1.363,1.366,1.372,0,2.42,2.411,2.403,2.403,2.403,2.403,2.403,2.403,2.403,2.403,2.411,2.42,2.411,2.411,2.411,2.411,2.411,2.411,2.403,2.403,2.403,2.403,2.403,2.403,2.411,2.411,2.411,2.411,2.411,2.411,2.411,2.411,2.411,2.411,2.411,2.411,2.411,2.403,2.403,2.403,0,0,0,0,0,0,0,0,1.324,1.324,1.324,1.327,1.329,1.334,1.337,1.34,1.342,1.342,0,2.411,2.42,2.428,2.437,2.437,2.437,2.428,2.428,2.437,2.446,2.454,2.454,2.446,2.446,2.446,2.446,2.454,2.454,2.446,2.437,2.437,2.437,2.437,2.437,2.437,2.437,2.437,2.446,2.446,2.446,2.446,2.446,2.437,2.437,2.437,2.446,2.437,2.428,2.428,2.428,2.428,2.428,0,0,0,0,0,0,0,0,0,1.329,1.327,1.322,1.316,1.314,1.311,1.309,1.306,1.304,0,0,2.446,2.446,2.454,2.446,2.437,2.437,2.437,2.437,2.437,2.42,2.42,2.42,2.42,2.42,2.42,2.42,2.42,2.42,2.42,2.42,2.42,2.42,2.42,2.42,2.428,2.428,2.428,2.428,2.437,2.437,2.437,2.437,2.437,2.437,2.437,2.437,2.437,2.437,2.437,2.437,0,0,0,0,0,0,0,1.369,1.355,1.347,1.34,1.332,1.327,1.319,1.314,1.311,1.306,1.302,1.299,1.297,1.292,1.289,1.287,1.287,0,0,2.446,2.446,2.446,2.446,2.446,2.446,2.446,2.437,2.437,2.437,2.437,2.428,2.428,2.428,2.428,2.437,2.437,2.446,2.454,2.454,2.454,2.454,2.463,2.463,2.463,2.463,2.454,2.454,2.446,2.446,2.437,2.437,2.437,2.437,2.437,2.428,2.42,2.42,2.42,2.428,0,0,0,0,0,0,0,1.334,1.329,1.327,1.324,1.322,1.316,1.314,1.311,1.306,1.302,1.297,1.289,1.28,1.27,0,0,1.245,1.234,1.229,0,0,2.545,2.545,2.536,2.536,2.536,2.536,2.536,2.526,2.526,2.526,2.526,2.536,2.536,2.536,2.545,2.545,2.545,2.545,2.555,2.564,2.564,2.564,2.574,2.583,2.593,2.593,2.593,2.574,0,0,0,0,0,0,0,1.388,1.383,1.377,1.372,1.366,1.361,1.355,1.35,1.342,1.337,1.332,1.329,1.324,1.322,1.319,1.316,1.314,1.311,1.311,1.306,1.306,1.304,1.306,1.311,1.316,1.324,1.332,1.345,1.355,1.366,1.377,1.388,1.397,1.405,1.414,1.42,1.423,1.432,1.438,1.441,1.45,1.453,1.45,1.45,1.447,1.444,1.438,1.432,1.423,1.414,1.405,1.4,1.394,1.388,1.383,1.377,1.374,1.369,1.366,1.361,1.355,1.35,1.345,1.342,1.337,1.334,1.329,1.327,1.324,1.322,1.319,1.316,1.314,1.309,1.306
1.316,1.319,1.322,1.324,1.329,1.332,1.334,1.34,1.342,1.345,1.35,1.355,1.361,1.363,1.369,1.374,1.38,1.385,1.391,1.394,1.4,1.402,1.408,1.414,1.42,1.423,1.432,1.438,1.444,1.453,1.456,1.459,1.465,1.465,1.465,1.459,1.456,1.45,1.444,1.435,1.432,1.423,1.417,1.411,1.405,0,0,0,1.358,1.345,1.332,1.322,1.314,1.311,1.309,1.306,1.309,1.316,1.322,1.329,1.337,1.342,1.347,1.355,1.361,1.366,1.372,1.38,1.385,0,0,0,0,0,0,2.298,2.306,2.306,2.306,2.314,2.322,2.314,2.314,2.314,2.314,2.314,2.314,2.314,2.306,2.306,2.298,2.275,2.261,2.253,2.238,2.154,0,0,0,0,0,0,0,0,0,0,0,0,1.383,1.369,1.358,1.35,1.34,1.337,1.334,1.332,1.332,1.334,1.334,1.334,1.34,1.342,1.347,1.353,1.358,1.366,1.372,1.38,1.388,1.4,0,2.394,2.386,2.386,2.386,2.378,2.37,2.37,2.37,2.37,2.37,2.378,2.386,2.394,2.403,2.403,2.403,2.403,2.403,2.394,2.386,2.386,2.386,2.378,2.386,2.386,2.386,2.386,2.394,2.394,2.394,2.386,2.386,0,0,0,0,0,0,0,0,0,0,0,1.345,1.34,1.337,1.332,1.332,1.337,1.34,1.345,1.347,1.353,1.355,1.361,1.363,1.369,1.374,1.38,0,0,2.403,2.403,2.394,2.403,2.403,2.394,2.394,2.403,2.403,2.411,2.411,2.411,2.411,2.411,2.411,2.411,2.411,2.403,2.403,2.403,2.403,2.403,2.403,2.411,2.411,2.411,2.411,2.411,2.403,2.403,2.403,2.403,2.411,2.411,2.403,2.403,2.394,2.394,2.394,0,0,0,0,0,0,0,0,0,1.34,1.342,1.34,1.345,1.353,1.353,1.353,1.353,1.355,0,0,2.411,2.411,2.42,2.428,2.428,2.42,2.42,2.428,2.437,2.446,2.446,2.446,2.437,2.446,2.446,2.454,2.454,2.446,2.437,2.437,2.437,2.437,2.446,2.437,2.437,2.437,2.446,2.446,2.446,2.446,2.446,2.437,2.437,2.437,2.437,2.437,2.428,2.42,2.42,2.42,2.42,0,0,0,0,0,0,0,0,1.345,1.34,1.337,1.334,1.329,1.327,1.324,1.322,1.322,1.319,0,0,2.446,2.446,2.446,2.437,2.437,2.437,2.437,2.437,2.428,2.42,2.42,2.42,2.42,2.42,2.42,2.42,2.42,2.42,2.42,2.42,2.42,2.42,2.42,2.42,2.428,2.428,2.428,2.428,2.437,2.437,2.446,2.446,2.446,2.446,2.437,2.437,2.446,2.437,2.437,0,0,0,0,0,0,1.397,1.385,1.377,1.366,1.355,1.347,1.342,1.337,1.329,1.324,1.319,1.316,1.311,1.309,1.304,1.302,1.297,0,0,2.437,2.437,2.446,2.446,2.446,2.446,2.446,2.446,2.437,2.437,2.437,2.437,2.428,2.428,2.428,2.428,2.437,2.437,2.446,2.454,2.454,2.454,2.463,2.463,2.463,2.463,2.463,2.463,2.454,2.454,2.446,2.446,2.428,2.428,2.428,2.428,2.428,2.42,2.42,2.42,0,0,0,0,0,0,0,0,0,1.334,1.332,1.327,1.322,1.322,1.319,1.314,1.311,1.309,1.306,1.302,1.294,1.284,0,0,0,2.481,0,0,0,2.536,2.545,2.545,2.545,2.545,2.545,2.536,2.536,2.536,2.526,2.526,2.526,2.526,2.526,2.526,2.526,2.526,2.517,2.526,2.536,2.545,2.545,2.555,2.564,2.574,2.593,2.593,0,0,0,0,0,0,0,0,1.391,1.388,1.383,1.38,1.374,1.369,1.363,1.358,1.355,1.35,1.342,1.34,1.334,1.332,1.327,1.324,1.322,1.322,1.322,1.322,1.324,1.327,1.329,1.334,1.342,1.353,1.361,1.372,1.383,1.394,1.405,1.417,1.426,1.435,1.441,1.447,1.45,1.453,1.459,1.462,1.465,1.465,1.465,1.462,1.459,1.453,1.447,1.438,1.432,1.423,1.414,1.405,1.4,1.394,1.388,1.383,1.38,1.374,1.372,1.366,1.361,1.358,1.353,1.35,1.345,1.342,1.337,1.334,1.332,1.327,1.327,1.324,1.322,1.316,1.314,1.311
1.327,1.327,1.329,1.332,1.334,1.337,1.34,1.342,1.347,1.35,1.355,1.358,1.361,1.366,1.372,1.374,1.38,1.385,1.391,1.394,1.4,1.405,1.408,1.414,1.42,1.426,1.432,1.441,1.444,1.453,1.459,1.462,1.468,1.472,1.478,1.481,1.481,1.481,1.478,1.472,1.468,1.462,1.456,1.45,1.444,1.432,1.423,1.408,0,1.377,0,1.347,1.337,1.327,1.322,1.319,1.319,1.324,1.327,1.334,1.342,1.347,1.353,1.358,1.363,1.369,1.374,1.383,1.385,1.397,1.408,1.42,1.435,1.45,1.462,0,0,0,0,0,0,0,2.306,2.306,2.306,2.306,2.306,2.306,2.298,2.291,2.283,2.261,2.246,2.238,2.231,2.045,1.878,2.009,0,0,0,0,0,0,0,0,0,0,0,0,1.394,1.383,1.369,1.363,1.355,1.35,1.35,1.347,1.345,1.342,1.345,1.35,1.353,1.358,1.363,1.372,1.38,1.385,1.391,1.402,1.414,0,0,2.386,2.378,2.378,2.37,2.37,2.37,2.37,2.378,2.386,2.386,2.394,2.403,2.403,2.403,2.403,2.394,2.386,2.386,2.386,2.378,2.378,2.37,2.37,2.378,2.386,2.386,2.386,2.386,2.386,2.386,0,0,0,0,0,0,0,0,0,0,0,0,1.366,1.358,1.353,1.35,1.353,1.353,1.355,1.358,1.363,1.366,1.372,1.377,1.38,1.385,1.391,1.4,0,0,2.394,2.394,2.394,2.394,2.394,2.386,2.394,2.403,2.411,2.411,2.411,2.411,2.411,2.403,2.403,2.411,2.403,2.403,2.403,2.403,2.403,2.403,2.403,2.411,2.411,2.403,2.403,2.394,2.403,2.403,2.403,2.403,2.403,2.394,2.394,2.386,2.386,2.386,0,0,0,0,0,0,0,0,0,1.366,1.363,1.361,1.361,1.366,1.369,1.372,1.372,1.374,0,0,2.403,2.411,2.42,2.42,2.42,2.42,2.42,2.428,2.437,2.437,2.437,2.437,2.437,2.437,2.437,2.446,2.454,2.446,2.446,2.437,2.437,2.437,2.446,2.446,2.437,2.437,2.446,2.446,2.446,2.446,2.446,2.437,2.437,2.437,2.437,2.428,2.428,2.42,2.411,0,0,0,0,0,0,0,0,0,1.363,1.358,1.353,1.35,1.345,1.34,1.337,1.337,1.334,1.334,1.332,0,2.437,2.437,2.437,2.437,2.437,2.428,2.428,2.428,2.428,2.428,2.42,2.42,2.42,2.428,2.428,2.42,2.42,2.42,2.42,2.42,2.42,2.411,2.411,2.42,2.428,2.428,2.428,2.428,2.437,2.437,2.446,2.446,2.446,2.446,2.446,2.446,2.446,2.446,2.446,2.437,0,0,0,0,0,0,0,1.394,1.385,1.374,1.366,1.358,1.353,1.345,1.34,1.334,1.329,1.327,1.322,1.319,1.314,0,0,2.42,2.42,2.428,2.437,2.437,2.437,2.437,2.437,2.446,2.437,2.437,2.437,2.437,2.428,2.428,2.428,2.428,2.437,2.437,2.446,2.446,2.454,2.454,2.454,2.463,2.463,2.463,2.463,2.463,2.463,2.454,2.446,2.437,2.437,2.428,2.42,2.42,2.428,2.42,2.411,2.411,2.42,0,0,0,0,0,0,0,0,0,1.34,1.334,1.329,1.327,1.324,1.319,1.316,1.314,1.311,1.309,1.304,0,0,0,2.463,2.472,2.481,2.49,2.508,2.526,2.536,2.545,2.545,2.545,2.545,2.545,2.545,2.545,2.536,2.526,2.526,2.526,2.517,2.517,2.517,2.508,2.517,2.508,2.517,2.526,2.536,2.536,2.545,0,2.574,0,0,0,0,0,0,0,0,0,1.397,1.391,1.388,1.385,1.38,1.377,1.372,1.369,1.363,1.361,1.355,1.35,1.345,1.34,1.34,1.337,1.334,1.332,1.332,1.337,1.342,1.345,1.353,1.358,1.366,1.377,1.388,1.402,1.411,1.423,1.435,1.447,1.456,1.465,1.472,1.475,1.478,1.478,1.481,1.478,1.478,1.475,1.472,1.468,1.465,1.459,1.453,1.447,1.438,1.432,1.423,1.414,1.408,1.402,1.397,1.391,1.385,1.38,1.377,1.372,1.369,1.363,1.361,1.355,1.353,1.35,1.345,1.342,1.34,1.337,1.334,1.332,1.329,1.329,1.327,1.324,1.322
1.337,1.337,1.337,1.34,1.342,1.345,1.345,1.35,1.35,1.355,1.358,1.361,1.366,1.369,1.372,1.377,1.383,1.388,1.394,1.397,1.402,1.405,1.411,1.414,1.42,1.426,1.432,1.438,1.447,1.453,1.459,1.465,1.472,1.475,1.481,1.484,1.491,1.497,1.497,1.497,1.497,1.5,1.494,1.491,1.484,1.472,1.462,1.444,1.429,1.411,1.397,1.374,1.361,1.347,1.34,1.332,1.332,1.329,1.334,1.337,1.345,1.35,1.355,1.358,1.366,1.369,1.377,1.383,1.388,1.397,1.408,1.42,1.432,1.447,0,0,0,1.497,1.507,1.51,1.51,0,0,2.291,2.298,2.291,2.291,0,2.283,2.268,2.261,2.246,2.224,2.095,1.986,1.862,1.794,0,0,0,0,0,0,1.524,1.514,1.504,1.497,1.481,1.465,1.45,1.432,1.417,1.402,1.391,1.38,1.369,1.366,1.361,1.355,1.353,1.353,1.355,1.361,1.366,1.372,1.38,1.385,1.391,1.4,1.408,1.417,1.429,1.441,0,0,0,0,0,0,0,0,0,0,0,0,0,0,2.403,2.394,2.386,2.378,2.378,2.37,2.37,2.361,2.361,2.37,2.37,2.378,2.378,2.378,2.378,0,0,0,0,0,0,0,0,0,0,0,0,0,1.394,1.385,1.374,1.369,1.369,1.369,1.369,1.372,1.374,1.377,1.383,1.388,1.391,1.397,1.402,1.411,1.42,1.432,0,2.394,2.394,2.394,2.386,2.386,2.394,2.394,2.403,2.411,2.411,2.403,2.403,2.403,2.403,2.403,2.403,2.403,2.403,2.403,2.403,2.403,2.403,2.403,2.403,2.394,2.394,2.394,2.394,2.394,2.394,2.394,2.386,2.386,2.386,2.378,2.378,0,0,0,0,0,0,0,0,0,0,1.391,1.385,1.38,1.38,1.383,1.383,1.388,1.391,1.397,0,0,2.394,2.403,2.411,2.42,2.42,2.411,2.42,2.42,2.428,2.437,2.437,2.428,2.428,2.428,2.437,2.446,2.454,2.446,2.446,2.446,2.446,2.446,2.446,2.446,2.446,2.446,2.446,2.446,2.446,2.446,2.446,2.42,2.394,2.394,2.394,2.386,2.37,2.361,2.37,0,0,0,0,0,0,0,0,1.383,1.374,1.372,1.366,1.363,1.358,1.355,1.355,1.355,1.353,1.353,0,0,2.428,2.428,2.428,2.437,2.428,2.428,2.42,2.428,2.42,2.42,2.42,2.42,2.411,2.42,2.42,2.42,2.411,2.411,2.411,2.411,2.411,2.411,2.411,2.411,2.411,2.42,2.42,2.428,2.437,2.437,2.446,2.446,2.446,2.446,2.446,2.446,2.446,2.446,0,0,0,0,0,0,1.432,1.42,1.411,1.402,1.394,1.383,1.374,1.369,1.363,1.355,1.35,1.345,1.34,1.337,1.332,1.327,1.322,0,0,2.411,2.42,2.42,2.428,2.437,2.428,2.437,2.437,2.437,2.437,2.428,2.428,2.428,2.428,2.428,2.428,2.428,2.428,2.437,2.437,2.446,2.446,2.454,2.454,2.454,2.454,2.454,2.446,2.446,2.446,2.437,2.437,2.428,2.428,2.42,2.411,2.42,2.42,2.411,2.411,0,0,0,0,0,0,0,1.372,1.363,1.355,1.347,1.342,1.337,1.332,1.327,1.324,1.319,1.316,1.314,1.311,1.311,0,0,2.446,2.454,2.463,2.463,2.472,2.49,2.508,2.517,2.536,2.545,2.545,2.555,2.555,2.555,2.545,2.545,2.545,2.536,2.526,2.517,2.508,2.508,2.499,2.499,2.49,2.499,2.499,2.499,2.517,2.526,0,0,0,0,0,0,0,0,0,1.411,1.408,1.402,1.397,1.394,1.391,1.388,1.383,1.38,1.374,1.372,1.369,1.366,1.361,1.355,1.353,1.35,1.347,1.345,1.345,1.345,1.35,1.355,1.366,1.372,1.383,1.391,1.402,1.414,1.429,1.441,1.453,1.462,1.475,1.484,1.491,1.494,1.494,1.497,1.494,1.491,1.487,1.481,1.478,1.475,1.472,1.465,1.462,1.456,1.45,1.444,1.438,1.429,1.423,1.417,1.411,1.405,1.4,1.394,1.388,1.385,1.38,1.377,1.372,1.369,1.366,1.361,1.358,1.353,1.35,1.347,1.347,1.345,1.342,1.34,1.34,1.34,1.337,1.337,1.334
1.347,1.347,1.347,1.35,1.35,1.353,1.353,1.355,1.358,1.361,1.363,1.366,1.369,1.372,1.377,1.383,1.388,1.391,1.397,1.4,1.405,1.408,1.414,1.417,1.423,1.429,1.432,1.438,1.447,1.453,1.459,1.468,1.472,1.478,1.484,1.487,1.494,1.5,1.507,1.514,1.517,1.524,1.527,1.53,1.524,1.514,1.5,1.484,1.468,1.45,1.429,1.408,0,1.374,1.363,1.355,1.35,1.347,1.347,1.347,1.353,1.355,1.361,1.363,1.366,1.372,1.377,1.385,1.391,1.4,1.408,1.42,1.432,1.444,1.459,1.472,1.481,1.494,1.504,1.504,1.507,1.51,1.51,1.51,0,1.507,1.507,0,0,0,0,0,0,0,0,1.583,1.562,1.583,1.576,1.555,1.524,1.52,1.524,1.524,1.52,1.517,1.51,1.5,1.491,1.478,1.462,1.447,1.432,1.417,1.405,1.394,1.383,1.374,1.369,1.363,1.361,1.366,1.369,1.372,1.38,1.385,1.394,1.4,1.405,1.414,1.423,1.432,1.444,1.453,1.465,1.475,1.484,1.494,1.5,1.507,1.507,1.514,1.517,1.524,0,0,0,0,0,0,0,0,2.361,2.361,0,0,0,0,0,0,0,0,0,0,0,0,0,0,1.534,1.527,1.514,1.494,1.478,1.459,0,1.426,1.411,1.4,1.391,1.385,1.385,1.385,1.385,1.388,1.388,1.394,1.397,1.402,1.408,1.414,1.42,1.429,1.441,1.453,0,0,2.394,2.386,2.386,2.386,2.394,2.403,2.403,2.403,2.403,2.394,2.394,2.394,2.394,2.394,2.394,2.394,2.394,2.394,2.394,2.394,2.394,2.394,2.394,2.386,2.386,2.386,2.386,2.386,2.386,2.386,2.378,2.378,2.37,0,0,0,0,0,0,0,0,0,0,0,1.411,1.405,1.4,1.397,1.397,1.4,1.405,1.411,1.417,0,0,0,2.394,2.403,2.411,2.411,2.411,2.411,2.42,2.428,2.437,2.437,2.428,2.428,2.428,2.437,2.446,2.454,2.446,2.446,2.446,2.446,2.454,2.454,2.446,2.446,2.446,2.446,2.446,2.446,2.446,2.446,2.42,2.394,2.353,2.386,2.329,2.314,2.353,0,0,0,0,0,0,0,1.408,1.4,1.391,1.388,1.383,1.377,1.374,1.372,1.372,1.374,1.377,1.383,0,0,0,2.428,2.428,2.428,2.428,2.42,2.42,2.42,2.42,2.42,2.42,2.42,2.42,2.411,2.42,2.42,2.42,2.411,2.411,2.411,2.403,2.411,2.411,2.403,2.411,2.411,2.42,2.42,2.428,2.437,2.446,2.446,2.446,2.446,2.454,2.454,2.446,2.446,2.446,0,0,0,0,0,0,1.438,1.429,1.42,1.411,1.402,1.394,1.385,1.377,1.372,1.366,1.361,1.355,1.353,1.347,1.345,0,0,2.411,2.411,2.411,2.42,2.42,2.428,2.428,2.428,2.428,2.437,2.437,2.428,2.428,2.428,2.428,2.428,2.42,2.42,2.42,2.428,2.428,2.437,2.437,2.446,2.446,2.446,2.446,2.437,2.437,2.42,2.411,2.394,2.37,2.361,2.353,2.353,2.322,2.306,2.322,2.337,2.345,2.37,0,0,0,0,0,0,0,1.374,1.366,1.358,1.353,1.345,1.34,1.334,1.332,1.327,1.322,1.316,1.314,1.314,1.311,0,2.454,2.454,2.454,2.463,2.472,2.481,2.49,2.49,2.517,2.526,2.536,2.545,2.555,2.555,2.555,2.555,2.555,2.555,2.536,2.536,2.517,2.499,2.499,2.49,2.49,2.49,2.481,2.49,2.49,2.499,0,0,0,0,0,0,0,0,1.426,1.42,1.414,1.411,1.405,1.4,1.397,1.394,1.391,1.388,1.385,1.383,1.377,1.374,1.372,1.369,1.366,1.361,1.361,1.361,1.361,1.363,1.366,1.374,1.383,1.394,1.405,1.417,1.426,1.438,1.453,1.465,1.478,1.487,1.497,1.504,1.507,1.514,1.514,1.51,1.504,1.497,1.494,1.487,1.481,1.475,1.472,1.465,1.462,1.459,1.453,1.447,1.444,1.438,1.432,1.426,1.42,1.414,1.408,1.402,1.4,1.394,1.391,1.388,1.383,1.377,1.374,1.372,1.366,1.363,1.361,1.358,1.358,1.355,1.353,1.353,1.35,1.353,1.35,1.35,1.35,1.347
