0.887,0.887,0.887,0.887,0.887,0.888,0.888,0.888,0.888,0.888,0.889,0.89,0.89,0.89,0.89,0.89,0.89,0.89,0.89,0.89,0.889,0.889,0.889,0.89,0.89,0.889,0.889,0.889,0.889,0.889,0.889,0.888,0.889,0.889,0.889,0.89,0.891,0.891,0.892,0.894,0.894,0.895,0.895,0.895,0.895,0.895,0.895,0.895,0.895,0.895,0.894,0.894,0.892,0.892,0.892,0.892,0.892,0.892,0.892,0.894,0.894,0.895,0.895,0.895,0.895,0.895,0.895,0.896,0.897,0.897,0.897,0.898,0.899,0.899,0.899,0.899,0.899,0.898,0.898,0.898,0.898,0.898,0.897,0.898,0.898,0.898,0.897,0.898,0.898,0.898,0.898,0.899,0.899,0.899,0.899,0.901,0.901,0.902,0.902,0.902,0.903,0.903,0.904,0.904,0.903,0.903,0.903,0.902,0.901,0.898,0.898,0.897,0.896,0.896,0.896,0.894,0.894,0.894,0.894,0.894,0.894,0.894,0.894,0.894,0.896,0.898,0.899,0.901,0.903,0.903,0.904,0.905,0.905,0.905,0.905,0.905,0.905,0.905,0.905,0.907,0.907,0.908,0.909,0.909,0.91,0.913,0.913,0.914,0.914,0.914,0.915,0.916,0.916,0.916,0.916,0.916,0.916,0.917,0.917,0.917,0.917,0.917,0.917,0.917,0.917,0.917,0.919,0.919,0.92,0.921,0.921,0.921,0.922,0.922,0.922,0.922,0.921,0.921,0.921,0.921,0.921,0.921,0.922,0.921,0.921,0.922,0.922,0.922,0.922,0.922,0.924,0.924,0.924,0.925,0.925,0.925,0.925,0.925,0.925,0.925,0.924,0.924,0.924,0.924,0.925,0.925,0.925,0.925,0.925,0.925,0.926,0.927,0.927,0.927,0.927,0.927,0.929,0.929,0.929,0.929,0.929,0.927,0.929,0.929,0.927,0.927,0.929,0.929,0.93,0.931,0.931,0.931,0.932,0.934,0.934,0.934,0.935,0.934,0.934,0.934,0.934,0.934,0.934,0.934,0.934,0.934,0.934,0.934,0.932,0.932,0.932,0.932,0.934,0.934,0.934,0.934,0.934,0.934,0.934,0.934,0.932,0.932,0.932,0.931,0.931,0.931,0.931,0.931,0.932,0.932,0.932,0.932,0.934,0.935,0.936,0.938,0.938,0.936,0.936,0.936,0.936,0.936,0.936,0.935,0.935,0.934,0.934,0.935,0.935,0.935,0.936,0.936,0.936,0.936,0.936,0.936,0.936,0.936,0.936,0.935,0.935,0.935,0.936,0.938,0.939,0.939,0.938,0.938,0.939,0.939,0.938,0.938,0.936,0.936,0.936,0.936,0.936,0.936,0.938,0.94,0.941,0.941,0.94,0.94,0.939,0.939,0.938,0.938,0.936,0.936,0.936,0.938,0,0,0,0.941,0.941,0.943,0.943,0.943,0.943,0.943,0.943,0.944,0.945,0.945,0.947,0.947,0.947,0.947,0.947,0.945,0.944,0.941,0.94,0.939,0.938,0.938,0.936,0.936,0.936,0.938,0.938,0.938,0.938,0.938,0.938,0.94,0.94,0.943,0.945,0.948,0.952,0.954,0.956,0.957,0.958,0.958,0.96,0.96,0.96,0.961,0.961,0.961,0.962,0.962,0.964,0.964,0.962,0.961,0.961,0.96,0.96,0.961,0.961,0.961,0.961,0.962,0.965,0.965,0.967,0.968,0.968,0.968,0.968,0.968,0.968,0.968,0.968,0.968,0.968,0.968,0.967,0.967,0.967,0.967,0.965,0.965,0.965,0.965,0.965,0.967,0.968,0.968,0.969,0.971,0.972,0.973,0.973,0.973,0.973,0.975,0.975,0.975,0.975,0.973,0.973,0.973,0.975,0.975,0.973,0.975,0.975,0.975,0.976,0.975,0.975,0.973,0.972,0.972,0.972,0.971,0.971,0.971,0.971,0.971,0.971,0.971,0.971,0.971,0.972,0.972,0.973,0.973,0.973,0.973,0.973,0.973,0.972,0.972,0.972,0.972,0.973,0.975,0.975,0.976,0.979,0.979,0.982,0.983,0.983,0.983,0.983,0.985,0.985,0.985,0.986,0.985,0.985,0.983,0.986,0,0,0,0,0,0,0,0,0,0,0,0,0,0,0,0,0,0,0,0,0,0,0,0,0,0,0,0,0,0,0,0,0,0,0,0,0,0,0,0,0,0,0,0,0,0,0,0,0,0,0,0,0,0,0,0,0,0,0,0,0,0,0,0,0,0
0.888,0.888,0.888,0.888,0.888,0.888,0.888,0.888,0.889,0.889,0.89,0.89,0.89,0.891,0.891,0.891,0.891,0.89,0.89,0.89,0.889,0.889,0.89,0.89,0.89,0.889,0.889,0.889,0.889,0.889,0.889,0.889,0.889,0.889,0.889,0.89,0.891,0.891,0.892,0.894,0.895,0.895,0.895,0.895,0.895,0.895,0.895,0.895,0.895,0.895,0.895,0.894,0.894,0.892,0.892,0.892,0.892,0.892,0.894,0.894,0.895,0.895,0.895,0.895,0.895,0.896,0.897,0.897,0.897,0.898,0.899,0.899,0.901,0.901,0.899,0.899,0.899,0.899,0.899,0.899,0.898,0.898,0.898,0.898,0.898,0.898,0.897,0.897,0.898,0.899,0.898,0.899,0.899,0.899,0.899,0.901,0.901,0.901,0.902,0.902,0.902,0.903,0.904,0.904,0.903,0.903,0.902,0.901,0.899,0.898,0.897,0.896,0.896,0.896,0.896,0.894,0.894,0.894,0.894,0.894,0.894,0.894,0.894,0.894,0.896,0.898,0.899,0.901,0.902,0.903,0.904,0.905,0.905,0.905,0.905,0.905,0.905,0.905,0.905,0.905,0.907,0.908,0.908,0.909,0.91,0.911,0.913,0.913,0.914,0.915,0.915,0.916,0.916,0.916,0.916,0.916,0.916,0.917,0.917,0.917,0.917,0.917,0.917,0.919,0.919,0.919,0.92,0.92,0.921,0.921,0.922,0.922,0.922,0.922,0.922,0.922,0.921,0.921,0.922,0.922,0.922,0.922,0.922,0.922,0.922,0.922,0.924,0.924,0.924,0.924,0.924,0.924,0.924,0.925,0.925,0.925,0.925,0.925,0.925,0.925,0.925,0.924,0.924,0.924,0.925,0.925,0.925,0.925,0.925,0.925,0.926,0.927,0.927,0.927,0.927,0.929,0.93,0.93,0.93,0.929,0.929,0.929,0.929,0.929,0.927,0.927,0.929,0.929,0.93,0.931,0.931,0.931,0.932,0.934,0.934,0.934,0.935,0.934,0.934,0.934,0.934,0.934,0.932,0.934,0.932,0.932,0.932,0.932,0.932,0.932,0.931,0.932,0.934,0.934,0.934,0.934,0.934,0.934,0.934,0.934,0.934,0.934,0.932,0.932,0.931,0.931,0.931,0.932,0.932,0.932,0.934,0.934,0.934,0.935,0.936,0.938,0.938,0.938,0.936,0.936,0.936,0.936,0.936,0.936,0.935,0.934,0.934,0.935,0.935,0.935,0.936,0.935,0.935,0.935,0.936,0.936,0.936,0.936,0.936,0.935,0.935,0.935,0.936,0.938,0.938,0.939,0.939,0.939,0.939,0.939,0.939,0.938,0.938,0.936,0.936,0.936,0.936,0.936,0.938,0.94,0.941,0.941,0.941,0.94,0.94,0.939,0.938,0.938,0.936,0.936,0.936,0.936,0,1.749,0,0,0,0,0,0,0,0,0,0,0,0,0,0,0,0,0,0,0.943,0,0.939,0.938,0.938,0.938,0.936,0.936,0.935,0.935,0.936,0.936,0.936,0.936,0.938,0.94,0.941,0.943,0.947,0.949,0.952,0,0.958,0.958,0.96,0.96,0.958,0,0,0,0,0,0,0,0,0,0,0,0,0,0,0,0,0,0,0,0,0,0,0,0,0,0,0,0,0,0,0,0,0,0,0,0,0,0,0.967,0,0,0,0,0,0,0,0,0,0,0,0,0,0,0,0,0,0,0,0,0,0,0,0,0,0,0,0,0,0.972,0.972,0.972,0.971,0.971,0.971,0.969,0.969,0.969,0.969,0.969,0.969,0.971,0.971,0.972,0.972,0.973,0.973,0.973,0.973,0.973,0.972,0.973,0.973,0.973,0.973,0.975,0.975,0.976,0.978,0.979,0.98,0.983,0.983,0.983,0.982,0.983,0.985,0.985,0.985,0.983,0.985,0.985,0,0,0,0,0,0,0,0,0,0,0,0,0,0,0,0,0,0,0,0,0,0,0,0,0,0,0,0,0,0,0,0,0,0,0,0,0,0,0,0,0,0,0,0,0,0,0,0,0,0,0,0,0,0,0,0,0,0,0,0,0,0,0,0,0,0,1.075
0.888,0.889,0.889,0.889,0.889,0.889,0.89,0.89,0.89,0.89,0.891,0.892,0.892,0.892,0.892,0.892,0.892,0.892,0.891,0.891,0.89,0.891,0.89,0.89,0.89,0.889,0.89,0.89,0.89,0.889,0.889,0.89,0.89,0.89,0.891,0.891,0.892,0.892,0.894,0.895,0.895,0.895,0.895,0.895,0.895,0.895,0.895,0.895,0.895,0.895,0.895,0.895,0.894,0.894,0.894,0.894,0.894,0.894,0.894,0.894,0.895,0.895,0.895,0.895,0.896,0.897,0.897,0.897,0.898,0.898,0.899,0.899,0.901,0.901,0.901,0.899,0.899,0.899,0.899,0.899,0.899,0.899,0.898,0.898,0.898,0.898,0.898,0.898,0.898,0.898,0.898,0.898,0.899,0.899,0.901,0.901,0.902,0.902,0.902,0.903,0.903,0.903,0.904,0.903,0.903,0.902,0.902,0.901,0.899,0.898,0.897,0.896,0.896,0.896,0.896,0.895,0.895,0.894,0.894,0.895,0.894,0.894,0.894,0.894,0.896,0.897,0.899,0.901,0.902,0.903,0.903,0.905,0.905,0.905,0.905,0.905,0.905,0.905,0.905,0.905,0.907,0.908,0.908,0.908,0.91,0.911,0.913,0.913,0.914,0.915,0.915,0.915,0.916,0.916,0.916,0.916,0.916,0.916,0.917,0.917,0.917,0.917,0.917,0.919,0.919,0.92,0.92,0.921,0.921,0.922,0.922,0.921,0.922,0.922,0.921,0.921,0.921,0.921,0.921,0.922,0.922,0.922,0.922,0.922,0.922,0.922,0.924,0.922,0.924,0.924,0.924,0.924,0.925,0.925,0.925,0.925,0.925,0.925,0.925,0.925,0.924,0.924,0.924,0.924,0.925,0.925,0.925,0.925,0.925,0.926,0.926,0.926,0.927,0.927,0.927,0.929,0.929,0.93,0.93,0.93,0.929,0.929,0.929,0.929,0.929,0.927,0.927,0.929,0.93,0.93,0.932,0.931,0.932,0.932,0.932,0.934,0.935,0.934,0.934,0.934,0.932,0.932,0.932,0.932,0.932,0.932,0.932,0.932,0.932,0.932,0.932,0.932,0.932,0.934,0.934,0.934,0.934,0.934,0.934,0.934,0.934,0.932,0.932,0.932,0.931,0.932,0.932,0.932,0.932,0.932,0.934,0.932,0.935,0.935,0.938,0.938,0.938,0.938,0.936,0.936,0.936,0.936,0.936,0.936,0.935,0.934,0.934,0.934,0.935,0.935,0.935,0.935,0.935,0.935,0.935,0.935,0.936,0.936,0.936,0.935,0.935,0.935,0.936,0.938,0.938,0.939,0.939,0.939,0.939,0.939,0.939,0.938,0.936,0.936,0.936,0.935,0.935,0.935,0,0,0,0,0,0,0,0,0,0,1.771,1.762,1.758,1.758,1.758,1.753,1.758,1.758,1.762,1.762,1.762,1.758,1.753,0,0,0,0,0,0,0,0,0,0,0,0,0,0,0,0,0,0,0,0,0,0,0,0,0,0,0,0,0,0,0,0,0,0,0,0,0,0,2.705,2.705,2.705,2.705,2.705,2.716,2.716,2.716,2.727,2.738,2.738,2.738,0,0,0,0,0,0,0,2.727,2.738,2.738,2.738,0,0,2.738,2.738,2.749,0,0,0,2.738,2.738,2.749,0,0,0,0,0,0,0,0,0,0,0,0,0,2.875,2.875,0,0,0,0,0,0,0,0,0,0,0,0,0,0,0,0,0,0,0,0,0.972,0.971,0.971,0.969,0.969,0.968,0.968,0.969,0.969,0.968,0.969,0.971,0.971,0.972,0.972,0.972,0.972,0.972,0.972,0.972,0.972,0.972,0.972,0.972,0.973,0.975,0.975,0.976,0.978,0.979,0.98,0.982,0.982,0.982,0.982,0.982,0.983,0.983,0.983,0.983,0.983,0,0,0,0,1.776,0,0,1.625,0,0,0,0,0,0,0,0,0,0,0,0,0,0,1.294,1.292,1.287,1.284,1.28,1.275,1.275,1.27,1.268,1.266,0,0,0,0,0,0,0,0,0,0,0,0,0,0,0,0,0,0,0,0,0,0,0,0,0,0,0,0,0,0,0,0,0,0,0,0
0.889,0.889,0.889,0.89,0.89,0.89,0.89,0.89,0.891,0.891,0.891,0.892,0.892,0.892,0.892,0.894,0.892,0.892,0.891,0.891,0.89,0.89,0.89,0.89,0.89,0.89,0.889,0.889,0.889,0.889,0.889,0.89,0.89,0.89,0.891,0.891,0.892,0.894,0.894,0.895,0.895,0.895,0.895,0.895,0.895,0.895,0.896,0.896,0.896,0.895,0.895,0.895,0.895,0.895,0.894,0.894,0.894,0.894,0.894,0.895,0.895,0.895,0.895,0.896,0.896,0.897,0.897,0.897,0.898,0.898,0.899,0.901,0.902,0.902,0.902,0.901,0.901,0.901,0.901,0.899,0.899,0.899,0.898,0.898,0.898,0.898,0.898,0.898,0.898,0.898,0.898,0.898,0.898,0.898,0.901,0.901,0.902,0.902,0.902,0.903,0.902,0.903,0.903,0.903,0.902,0.902,0.902,0.901,0.898,0.898,0.897,0.896,0.896,0.897,0.896,0.895,0.895,0.895,0.895,0.895,0.895,0.895,0.894,0.894,0.896,0.897,0.899,0.899,0.902,0.903,0.903,0.905,0.905,0.905,0.905,0.905,0.905,0.905,0.905,0.905,0.907,0.907,0.908,0.909,0.91,0.911,0.911,0.913,0.913,0.915,0.915,0.915,0.916,0.916,0.916,0.916,0.916,0.916,0.917,0.917,0.919,0.919,0.919,0.92,0.92,0.921,0.922,0.922,0.922,0.924,0.924,0.925,0.924,0.924,0.924,0.924,0.922,0.922,0.922,0.922,0.924,0.922,0.922,0.922,0.924,0.924,0.924,0.924,0.924,0.924,0.924,0.925,0.925,0.925,0.925,0.925,0.925,0.925,0.925,0.925,0.925,0.924,0.925,0.925,0.926,0.926,0.926,0.926,0.926,0.926,0.927,0.927,0.929,0.929,0.929,0.93,0.93,0.93,0.931,0.931,0.93,0.93,0.93,0.93,0.929,0.929,0.929,0.929,0.93,0.931,0.932,0.932,0.934,0.934,0.934,0.935,0.935,0.935,0.934,0.934,0.934,0.934,0.934,0.934,0.932,0.931,0.931,0.932,0.932,0.931,0.931,0.932,0.932,0.934,0.934,0.935,0.935,0.934,0.934,0.934,0.934,0.934,0.934,0.932,0.932,0.932,0.932,0.934,0.934,0.932,0.934,0.932,0.934,0.935,0.936,0.936,0.938,0.938,0.936,0.936,0.936,0.936,0.936,0.936,0.935,0.934,0.934,0.934,0.934,0.934,0.934,0.935,0.934,0.934,0.935,0.935,0.935,0.935,0.935,0.935,0.935,0.935,0.936,0.938,0.938,0.939,0.939,0.94,0.939,0.939,0.938,0.938,0.936,0.936,0.935,0.934,0,0,0,0,1.837,1.837,1.833,1.833,0,0,0,0,1.776,1.771,1.767,1.762,1.762,1.762,1.762,1.762,1.767,1.767,1.767,1.762,1.758,1.758,1.758,1.758,0,0,0,0,0,0,0,0,0,0,0,0,0,0,0,0,2.705,2.716,2.727,2.738,2.749,2.749,2.749,2.738,2.727,0,0,0,0,0,0,2.705,2.716,2.716,2.716,2.705,2.705,2.705,2.705,2.705,2.716,2.716,2.727,2.727,2.738,2.738,2.749,2.76,0,0,0,0,2.749,2.738,2.738,2.738,2.738,2.738,2.727,2.727,2.727,2.738,2.738,2.738,2.738,2.727,2.738,2.738,2.738,2.749,2.76,0,0,2.793,2.805,0,2.828,0,2.851,0,2.863,2.863,2.863,2.875,2.875,2.875,2.875,0,0,0,0,0,0,0,0,0,0,0,0,0,0,0,0,0,0,0.971,0.969,0.969,0.968,0.968,0.968,0.968,0.969,0.969,0.969,0.969,0.971,0.971,0.972,0.972,0.972,0.972,0.972,0.972,0.972,0.972,0.972,0.972,0.973,0.975,0.976,0.976,0.978,0.979,0.979,0.98,0.982,0.98,0.98,0.982,0.983,0.983,0.983,0,0,0,0,1.837,1.828,1.808,1.78,1.74,1.684,0,0,0,0,0,0,0,0,0,0,0,0,0,0,1.292,1.289,1.287,1.282,1.277,1.275,1.273,1.27,1.268,1.266,1.263,1.261,0,0,0,0,0,0,0,0,0,0,0,0,0,0,0,0,0,0,0,0,0,0,0,0,0,0,0,1.153,1.155,1.155,1.155,1.151,0,0
0.889,0.889,0.889,0.889,0.89,0.89,0.89,0.891,0.891,0.891,0.892,0.892,0.892,0.894,0.894,0.894,0.892,0.892,0.891,0.891,0.89,0.89,0.89,0.89,0.89,0.889,0.889,0.889,0.889,0.889,0.889,0.89,0.89,0.89,0.891,0.891,0.892,0.894,0.895,0.895,0.895,0.895,0.895,0.896,0.895,0.896,0.896,0.896,0.896,0.896,0.896,0.895,0.895,0.895,0.894,0.894,0.894,0.894,0.894,0.895,0.895,0.895,0.895,0.896,0.896,0.897,0.897,0.897,0.898,0.898,0.899,0.901,0.902,0.902,0.902,0.902,0.901,0.901,0.901,0.899,0.899,0.899,0.899,0.898,0.898,0.898,0.898,0.898,0.898,0.898,0.898,0.898,0.899,0.899,0.901,0.901,0.902,0.902,0.903,0.903,0.903,0.902,0.903,0.903,0.902,0.901,0.901,0.901,0.898,0.898,0.897,0.896,0.896,0.897,0.896,0.895,0.895,0.895,0.895,0.895,0.895,0.895,0.894,0.894,0.896,0.897,0.898,0.899,0.901,0.903,0.903,0.904,0.905,0.905,0.905,0.905,0.905,0.905,0.905,0.905,0.907,0.908,0.909,0.909,0.91,0.911,0.911,0.913,0.914,0.914,0,0.915,0.916,0,0,0,0,0,0,0,0,0,0,0,0,0,0,0,0,0,0,0,0,0,0,0,0,0,0,0,0,0,0,0,0,0,0,0,0,2.643,2.643,2.643,2.643,2.633,2.633,2.643,2.643,2.633,2.643,2.643,2.643,2.643,2.653,2.664,0,2.674,2.684,2.684,0,0,0,0,0,2.684,0,0,2.674,2.674,2.664,0,0,2.664,2.674,2.674,2.674,2.674,2.674,2.684,2.684,2.684,2.684,2.684,2.684,2.684,2.695,2.695,2.695,2.695,2.695,2.695,2.695,2.695,2.684,2.684,2.674,2.664,2.653,2.643,2.623,2.613,2.593,2.583,2.564,0,0,0,0,0,0,0,0,0,0,0,0,0,0,0,0,0,0,0,0,0.935,0.936,0.936,0.936,0.936,0.936,0.936,0.936,0.936,0.935,0.935,0.935,0.934,0.934,0.934,0.934,0.934,0.934,0.934,0.934,0.934,0.934,0.935,0.935,0.935,0.935,0.935,0.935,0.936,0.938,0.938,0.939,0.939,0.94,0.94,0.939,0.939,0.938,0.938,0.936,0.935,0.934,0.934,0,0,0,1.833,1.828,1.828,1.828,1.823,1.818,1.804,1.794,1.79,1.78,1.771,1.771,1.767,1.767,1.767,1.767,1.767,1.767,1.767,1.767,1.762,1.758,1.762,1.758,1.758,0,1.847,0,0,0,0,0,0,0,0,0,0,0,0,2.684,2.695,2.695,2.705,2.727,2.727,2.738,2.749,2.749,2.738,2.738,2.727,2.727,2.727,2.716,2.716,2.716,2.716,2.716,2.716,2.716,2.716,2.716,2.716,2.716,2.716,2.716,2.727,2.727,2.727,2.738,2.749,2.76,2.76,2.771,2.771,2.771,2.76,2.749,2.749,2.749,2.749,2.738,2.738,2.727,2.727,2.727,2.727,2.727,2.727,2.716,2.727,2.727,2.727,2.738,2.749,2.749,2.76,2.782,2.793,2.805,2.816,2.828,2.84,2.84,2.851,2.851,2.863,2.863,2.863,2.863,2.863,2.875,2.875,2.875,0,0,0,0,0,0,0,0,0,0,0,0,0,0,0,0,0.971,0.969,0.968,0.968,0.968,0.968,0.968,0.969,0.969,0.968,0.969,0.969,0.971,0.971,0.971,0.971,0.972,0.972,0.972,0.972,0.972,0.972,0.972,0.973,0.975,0.976,0.976,0.978,0.979,0.98,0.98,0.98,0.98,0.98,0.98,0.982,0.983,0.983,0,0,1.883,1.872,1.857,1.847,1.833,1.804,0,0,0,0,0,0,0,0,0,0,0,0,0,0,0,0,1.292,1.289,1.284,1.282,1.277,1.275,1.275,1.27,1.268,1.266,1.266,1.263,1.261,1.263,1.261,1.261,1.259,0,0,0,0,0,0,0,0,0,0,0,0,0,0,0,1.21,0,1.201,0,1.193,1.187,1.183,1.181,1.177,1.175,1.173,1.169,1.161,1.153
0.888,0.889,0.889,0.889,0.889,0.89,0.89,0.891,0.891,0.891,0.892,0.892,0.892,0.892,0.892,0.892,0.892,0.892,0.891,0.89,0.89,0.889,0.889,0.889,0.888,0.888,0.889,0.889,0.889,0.889,0.889,0.889,0.89,0.89,0.89,0.891,0.892,0.894,0.895,0.895,0.895,0.896,0.896,0.896,0.895,0.895,0.896,0.896,0.896,0.896,0.896,0.895,0.895,0.895,0.895,0.894,0.894,0.894,0.894,0.894,0.895,0.896,0.896,0.896,0.896,0.897,0.897,0.898,0.898,0.898,0.901,0.901,0.902,0.902,0.901,0.901,0.901,0.901,0.901,0.901,0.901,0.899,0.899,0.899,0.898,0.898,0.898,0.898,0.898,0.898,0.898,0.898,0.899,0.899,0.899,0.901,0.902,0.903,0.902,0.902,0.902,0.902,0.902,0.902,0.902,0.901,0.901,0.899,0.898,0.898,0.897,0.897,0.897,0.897,0.897,0.896,0.895,0.895,0.895,0.895,0.895,0.895,0.894,0.894,0.896,0.897,0.898,0.899,0.901,0.903,0.903,0.904,0.905,0.905,0.905,0.905,0.905,0.907,0.907,0.907,0.907,0.908,0,0,0,0,0,0,0,0,0,0,0,0,0,0,0,0,0,2.643,0,0,0,2.633,2.633,2.633,2.633,2.643,2.653,2.664,2.674,2.684,2.684,2.684,2.695,2.695,2.695,2.695,2.695,2.684,2.684,2.674,2.674,2.674,2.664,2.664,2.664,2.653,2.653,2.653,2.653,2.643,2.643,2.643,2.643,2.643,2.643,2.633,2.643,2.643,2.653,2.653,2.664,2.664,2.674,2.674,2.674,2.684,2.684,2.684,0,2.684,2.684,2.684,2.684,2.674,2.674,2.674,2.664,2.664,2.674,2.674,2.674,2.674,2.674,2.674,2.674,2.674,2.674,2.684,2.684,2.684,2.684,2.684,2.684,2.695,2.695,2.695,2.695,2.695,2.695,2.695,2.684,2.684,2.674,2.664,2.653,2.643,2.623,2.613,2.593,2.583,2.564,2.555,2.536,2.526,2.508,2.499,0,0,0,0,0,0,0,0,0,0,0,0,0,0,0,0,0,0,0,0,0.935,0.936,0.935,0.935,0.935,0.935,0.934,0.934,0.934,0.934,0.934,0.934,0.934,0.934,0.934,0.934,0.935,0.935,0.935,0.935,0.935,0.935,0.936,0.936,0.938,0.939,0.939,0.939,0.94,0.94,0.94,0.939,0.938,0.936,0.935,0.934,0.934,0.932,0,1.833,1.828,1.828,1.828,1.828,1.823,1.823,1.813,1.804,1.799,1.79,1.785,1.776,1.776,1.771,1.771,1.771,1.771,1.771,1.767,1.767,1.767,1.762,1.762,1.762,1.758,1.758,1.78,1.833,0,0,0,0,0,0,0,0,0,0,2.653,2.653,2.664,2.684,2.695,2.705,2.716,2.727,2.738,2.749,2.749,2.738,2.738,2.738,2.727,2.727,2.716,2.716,2.716,2.716,2.716,2.716,2.716,2.716,2.716,2.716,2.716,2.716,2.716,2.727,2.727,2.738,2.749,2.76,2.76,2.771,2.771,2.771,2.771,2.771,2.749,2.749,2.749,2.749,2.738,2.727,2.727,2.716,2.716,2.716,2.716,2.716,2.705,2.705,2.716,2.727,2.727,2.738,2.738,2.749,2.771,2.793,2.805,2.816,2.828,2.828,2.84,2.851,2.851,2.851,2.863,2.863,2.863,2.863,2.863,2.863,2.863,0,0,0,0,0,0,0,0,0,0,0,0,0,0,0,0,0.969,0.969,0.968,0.968,0.968,0.968,0.969,0.968,0.968,0.969,0.969,0.969,0.969,0.971,0.971,0.971,0.971,0.971,0.971,0.972,0.972,0.972,0.972,0.973,0.975,0.976,0.976,0.978,0.979,0.979,0.98,0.98,0.98,0.979,0.98,0,0.982,0,0,1.904,1.893,1.883,1.872,1.862,1.847,1.823,1.794,0,0,1.857,0,0,0,0,0,0,0,0,0,0,0,0,1.292,1.289,1.284,1.282,1.277,1.275,1.273,1.27,1.268,1.266,1.266,1.263,1.263,1.263,1.263,1.263,1.261,0,0,0,0,0,0,0,0,0,0,0,1.223,1.221,1.216,1.212,1.21,1.206,1.201,1.197,1.189,1.185,1.181,1.179,1.177,1.175,1.173,1.169,1.163,1.157
0.889,0.89,0.89,0.89,0.89,0.891,0.891,0.891,0.892,0.892,0.892,0.894,0.894,0.894,0.894,0.894,0.892,0.892,0.891,0.891,0.89,0.89,0.889,0.889,0.889,0.889,0.889,0.889,0.889,0.889,0.89,0.89,0.891,0.891,0.891,0.892,0.894,0.895,0.895,0.896,0.896,0.896,0.896,0.896,0.896,0.896,0.896,0.896,0.896,0.897,0.896,0.896,0.896,0.896,0.895,0.895,0.895,0.895,0.895,0.895,0.896,0.896,0.897,0.897,0.897,0.897,0.898,0.898,0.899,0.899,0.901,0.901,0.902,0.902,0.902,0.902,0.902,0.901,0.901,0.901,0.901,0.901,0.901,0.901,0.901,0.901,0.901,0.899,0.899,0.898,0.899,0.898,0.899,0.899,0.899,0.901,0.902,0.902,0.902,0.902,0.901,0.902,0.902,0.902,0.901,0.901,0.899,0.899,0.898,0.898,0.897,0.897,0.897,0.897,0.897,0.897,0.896,0.895,0.895,0.896,0.895,0.895,0.894,0.894,0.895,0.896,0.898,0.899,0.901,0.902,0.903,0.904,0.904,0.905,0.904,0.905,0.905,0.907,0.907,0.908,0.908,0.909,0,0,0,0,0,0,2.643,2.643,2.643,2.633,2.643,2.643,2.643,2.643,2.643,2.643,2.643,2.643,2.633,2.633,2.633,2.633,2.633,2.633,2.643,2.643,2.643,2.653,2.664,2.674,2.674,2.684,2.684,2.684,2.684,2.684,2.684,2.684,2.674,2.674,2.674,2.674,2.664,2.664,2.664,2.653,2.653,2.653,2.653,2.653,2.653,2.653,2.653,2.653,2.653,2.643,2.653,2.653,2.643,2.643,2.653,2.653,2.674,2.674,2.674,2.684,2.684,2.684,2.684,2.684,2.684,2.684,2.684,2.674,2.674,2.674,2.674,2.674,2.674,2.674,2.674,2.674,2.674,2.674,2.674,2.674,2.684,2.684,2.684,2.684,2.684,2.684,2.684,2.695,2.695,2.695,2.695,2.705,2.695,2.695,2.695,2.684,2.684,2.664,2.653,2.643,2.633,2.613,2.603,2.583,2.564,2.545,2.536,2.517,2.508,2.49,2.481,2.454,2.454,0,0,0,0,0,0,0,0,0,0,0,0,0,0,0,0,0,0.936,0.936,0.936,0.935,0.935,0.935,0.934,0.934,0.934,0.934,0.935,0.935,0.934,0.934,0.934,0.934,0.935,0.935,0.935,0.935,0.934,0.935,0.935,0.936,0.938,0.939,0.939,0.939,0.94,0.94,0.939,0.938,0.938,0.936,0.935,0.934,0.934,0,0,1.837,1.837,1.833,1.833,1.828,1.828,1.823,1.813,1.804,1.799,1.794,1.785,1.78,1.78,1.776,1.776,1.776,1.776,1.771,1.771,1.771,1.767,1.762,1.762,1.758,1.758,1.758,1.776,1.818,0,0,0,2.268,2.446,2.613,2.623,2.623,2.633,2.643,2.643,2.653,2.674,2.684,2.695,2.695,2.716,2.727,2.727,2.738,2.738,2.738,2.738,2.738,2.727,2.727,2.727,2.716,2.716,2.716,2.716,2.716,2.716,2.716,2.716,2.705,2.716,2.716,2.727,2.727,2.738,2.749,2.76,2.76,2.76,2.771,2.771,2.771,2.771,2.76,2.749,2.749,2.738,2.738,2.738,2.727,2.716,2.716,2.716,2.716,2.716,2.705,2.695,2.695,2.705,2.705,2.705,2.716,2.727,2.749,2.76,2.771,2.793,2.805,2.816,2.828,2.84,2.84,2.851,2.851,2.851,2.851,2.851,2.863,2.863,2.863,2.863,2.863,0,0,0,0,0,0,0,0,0,0,0,0,0,0,0,0,0,0.967,0.968,0.968,0.968,0.968,0.968,0.968,0.968,0.968,0.969,0.969,0.971,0.971,0.971,0.969,0,0,0,0,0.972,0.972,0.973,0.975,0.976,0.976,0.978,0.979,0.979,0.979,0.98,0.979,0.979,0.979,0.979,0.979,0,0,1.909,1.898,1.893,1.888,1.878,1.878,1.878,1.872,0,0,0,1.883,1.888,0,0,0,0,0,0,0,0,0,0,0,1.289,1.284,1.282,1.277,1.275,1.273,1.27,1.268,1.266,1.266,1.263,1.263,1.266,1.263,1.263,1.261,1.261,1.259,1.256,0,0,0,0,0,0,1.229,1.227,1.223,1.221,1.216,1.212,1.21,1.203,1.201,1.197,1.191,1.185,1.183,1.181,1.175,1.173,1.171,1.167,1.161,1.155
0,0,0,0,0,0,0,0,0,0,0,0,0,0,0,0,0,0,0,0,0,0,0,0,0,0,0,0,2.633,2.633,2.623,2.613,2.613,2.613,2.603,2.603,2.603,2.613,2.613,2.613,2.613,2.613,2.613,2.623,2.623,2.623,2.623,2.623,2.623,2.623,2.623,2.623,2.613,2.613,2.603,2.603,2.603,2.603,2.603,2.603,2.603,2.603,2.613,2.613,2.613,2.623,2.623,2.633,2.643,2.643,2.653,2.653,2.664,2.664,2.664,2.674,0,0,0,0,0,0,0,0,0,0,0,0,0,0,0,0,0,0,0,0,0,0,0,0,0,0,0.902,0.902,0.901,0.901,0.901,0.899,0.899,0.898,0.897,0.897,0.898,0.898,0.898,0.897,0.897,0.896,0.896,0.896,0.896,0.895,0.895,0.894,0.895,0.896,0.898,0.899,0.901,0.902,0.903,0.904,0.904,0.904,0.905,0.905,0.907,0.908,0.908,0.909,0.909,0.91,0,0,0,0,2.633,2.633,2.633,2.643,2.643,2.643,2.633,2.633,2.633,2.633,2.633,2.633,2.643,2.643,2.633,2.633,2.633,2.633,2.633,2.633,2.633,2.643,2.653,2.664,2.664,2.674,2.674,2.684,2.684,2.684,2.684,2.684,2.684,2.684,2.674,2.674,2.674,2.674,2.664,2.664,2.664,2.664,2.664,2.653,2.653,2.653,2.653,2.653,2.653,2.653,2.653,2.653,2.653,2.653,2.643,2.643,2.653,2.653,2.664,2.664,2.674,2.674,2.684,2.684,2.684,2.684,2.684,2.684,2.674,2.674,2.674,2.674,2.674,2.674,2.674,2.674,2.674,2.674,2.674,2.674,2.674,2.674,2.684,2.684,2.684,2.684,2.684,2.684,2.684,2.695,2.695,2.695,2.695,2.705,2.695,2.695,2.695,2.684,2.684,2.674,2.653,2.643,2.633,2.613,2.593,2.574,2.555,2.545,2.526,2.508,2.499,2.481,2.463,2.454,2.428,2.42,2.411,0,0,0,0,0,0,0,0,0,0,0,0,0,0,0,0,0.936,0.936,0.935,0.935,0.935,0.935,0.934,0.934,0.935,0.935,0.934,0.934,0.934,0.934,0.935,0.935,0.935,0.935,0.935,0.935,0.935,0.936,0.936,0.938,0.939,0.94,0.94,0.94,0.941,0.939,0.939,0.938,0.935,0.935,0.935,0.932,0,0,1.847,1.842,1.837,1.833,1.833,1.828,1.823,1.818,1.808,1.804,1.799,1.794,1.79,1.79,1.79,1.785,1.78,1.78,1.78,1.776,1.776,1.767,1.767,1.758,1.762,1.758,1.758,1.776,1.808,1.878,0,2.095,2.298,2.545,2.613,2.613,2.623,2.633,2.643,2.643,2.653,2.664,2.674,2.684,2.695,2.705,2.716,2.727,2.738,2.738,2.738,2.738,2.738,2.727,2.727,2.716,2.716,2.716,2.716,2.716,2.716,2.716,2.716,2.716,2.705,2.716,2.727,2.727,2.738,2.738,2.749,2.76,2.76,2.771,2.771,2.771,2.771,2.771,2.76,2.749,2.749,2.738,2.738,2.738,2.727,2.716,2.716,2.705,2.705,2.695,2.684,2.684,2.684,2.684,2.684,2.684,2.705,2.716,2.727,2.749,2.771,2.782,2.793,2.805,2.816,2.828,2.828,2.84,2.84,2.851,2.851,2.851,2.851,2.851,2.851,2.851,2.851,2.851,0,0,0,0,0,0,0,0,0,0,0,0,0,0,0,0,0,0.967,0.967,0.967,0.967,0.968,0.968,0.968,0.968,0.969,0.971,0,0,0,0,0,0,0,0,0,0,0.975,0.975,0.978,0.978,0.979,0.979,0.979,0.98,0.98,0.979,0.978,0.978,0,0,0,1.925,1.92,1.914,1.904,1.904,1.898,1.893,1.893,1.893,1.888,1.888,1.888,1.893,1.888,1.888,1.883,0,0,0,0,0,0,0,0,0,1.287,1.282,1.282,1.277,1.275,1.27,1.27,1.268,1.266,1.266,1.266,1.266,1.263,1.263,1.263,1.261,1.259,1.259,1.254,1.252,1.247,1.243,1.238,1.236,1.232,1.227,1.227,1.223,1.221,1.216,1.212,1.21,1.206,1.199,1.195,1.191,1.185,1.181,1.179,1.175,1.171,1.171,1.167,1.161,1.155
2.574,2.574,2.574,2.574,2.574,2.574,2.574,2.583,2.583,2.583,2.593,2.593,2.603,2.613,2.613,2.623,2.623,2.633,2.643,2.653,2.653,2.653,2.653,2.653,2.653,2.653,2.643,2.633,2.633,2.623,2.623,2.613,2.603,2.603,2.603,2.603,2.603,2.603,2.603,2.613,2.613,2.613,2.613,2.613,2.613,2.613,2.613,2.613,2.613,2.613,2.613,2.613,2.603,2.603,2.603,2.593,2.593,2.593,2.593,2.593,2.593,2.603,2.603,2.603,2.613,2.613,2.623,2.633,2.633,2.643,2.653,2.653,2.664,2.664,2.664,2.674,2.674,2.674,2.674,2.664,0,0,0,0,0,0,0,0,0,0,0,0,0,0,0,0,0,0,0,0,0,0,0.899,0.901,0.899,0.899,0.899,0.899,0.899,0.898,0.897,0.897,0.898,0.898,0.898,0.898,0.897,0.897,0.896,0.897,0.897,0.896,0.895,0.895,0.896,0.897,0.898,0.899,0.901,0.902,0.902,0.903,0.904,0.904,0.905,0.905,0.907,0.908,0.909,0.909,0.91,0.91,0,0,2.633,2.633,2.623,2.623,2.633,2.643,2.643,2.633,2.643,2.643,2.643,2.633,2.633,2.643,2.643,2.643,2.633,2.633,2.633,2.633,2.633,2.633,2.633,2.643,2.653,2.664,2.664,2.674,2.674,2.674,2.684,2.684,2.684,2.684,2.684,2.674,2.674,2.674,2.674,2.674,2.664,2.664,2.653,2.664,2.664,2.664,2.664,2.653,2.664,2.664,2.664,2.653,2.653,2.643,2.643,2.643,2.643,2.643,2.653,2.653,2.653,2.674,2.674,2.674,2.674,2.674,2.674,2.674,2.674,2.674,2.674,2.674,2.674,2.674,2.674,2.674,2.664,2.664,2.664,2.674,2.674,2.674,2.674,2.674,2.674,2.684,2.684,2.684,2.684,2.684,2.684,2.684,2.695,2.695,2.695,2.695,2.695,2.695,2.695,2.684,2.684,2.674,2.653,2.643,2.623,2.613,2.583,2.574,2.555,2.536,2.517,2.508,2.49,2.472,2.454,2.437,2.42,2.411,2.394,2.386,0,0,0,0,0,0,0,0,0,0,0,0,0,0,0,0.935,0.934,0.934,0.935,0.935,0.934,0.934,0.934,0.935,0.935,0.935,0.935,0.934,0.934,0.935,0.935,0.935,0.935,0.935,0.935,0.935,0.935,0.936,0.938,0.939,0.939,0.94,0.941,0.941,0.939,0.938,0.936,0.935,0.934,0.932,0,0,1.867,1.857,1.847,1.847,1.837,1.837,1.828,1.823,1.818,1.813,1.808,1.808,1.804,1.799,1.794,1.794,1.79,1.79,1.785,1.78,1.78,1.776,1.771,1.767,1.762,1.767,1.762,1.762,1.78,1.804,1.852,0,2.045,2.268,0,2.613,2.623,2.623,2.633,2.633,2.643,2.643,2.653,2.664,2.674,2.684,2.695,2.705,2.716,2.727,2.727,2.727,2.727,2.727,2.727,2.727,2.727,2.716,2.705,2.716,2.716,2.716,2.716,2.716,2.716,2.705,2.716,2.727,2.727,2.738,2.749,2.749,2.76,2.771,2.771,2.782,2.782,2.771,2.771,2.76,2.76,2.749,2.749,2.738,2.738,2.727,2.716,2.705,2.695,2.695,2.684,2.674,2.664,2.664,2.664,2.664,2.674,2.674,2.684,2.705,2.727,2.749,2.76,2.782,2.793,2.805,2.816,2.816,2.828,2.828,2.84,2.84,2.84,2.84,2.851,2.851,2.851,2.851,2.851,2.851,2.863,2.851,2.851,2.84,2.828,0,0,0,0,0,0,0,0,0,0,2.643,0,0,0,0,0,0,0,0,0,0,0,2.039,2.039,2.039,2.033,2.027,2.021,2.015,2.009,0,0,0,0,0,0,0,0,0,0,0,0,0,0,1.93,1.93,1.925,1.93,1.925,1.92,1.92,1.92,1.92,1.92,1.914,1.909,1.909,1.904,1.898,1.893,1.888,1.878,1.872,1.862,0,0,0,0,0,0,0,0,0,1.28,1.277,1.273,1.273,1.27,1.268,1.268,1.266,1.266,1.266,1.263,1.263,1.263,1.261,1.259,1.256,1.254,1.252,1.245,1.243,1.238,1.234,1.232,1.229,1.225,1.223,1.218,1.216,1.212,1.208,1.206,1.199,1.195,1.189,1.185,1.181,1.177,1.175,1.171,1.167,1.165,1.161,1.155
2.574,2.574,2.574,2.574,2.574,2.574,2.574,2.574,2.583,2.583,2.583,2.593,2.603,2.603,2.613,2.623,2.623,2.633,2.633,2.643,2.643,2.643,2.643,2.643,2.643,2.653,2.633,2.633,2.633,2.623,2.623,2.613,2.613,2.613,2.613,2.613,2.613,2.613,2.613,2.613,2.623,2.623,2.623,2.623,2.623,2.623,2.623,2.623,2.623,2.623,2.623,2.623,2.613,2.613,2.613,2.603,2.603,2.603,2.603,2.603,2.603,2.613,2.613,2.623,2.623,2.623,2.633,2.633,2.643,2.653,2.653,2.664,2.664,2.664,2.664,2.674,2.664,2.664,2.664,2.664,2.664,2.664,0,0,0,0,0,0,0,0,0,0,0,0,0,0,0,0,0,0,0,0,0.899,0.898,0.899,0.899,0.899,0.899,0.898,0.898,0.897,0.897,0.898,0.898,0.898,0.899,0.898,0.897,0.897,0.897,0.897,0.897,0.896,0.896,0.897,0.897,0.899,0.901,0.902,0.902,0.902,0.903,0.904,0.904,0.905,0.905,0.908,0.909,0.909,0.909,0.91,0.911,0,2.623,2.633,2.633,2.623,2.633,2.643,2.633,2.643,2.633,2.643,2.643,2.643,2.633,2.633,2.643,2.643,2.633,2.633,2.633,2.633,2.643,2.633,2.633,2.633,2.643,2.643,2.653,2.653,2.664,2.664,2.674,2.674,2.674,2.674,2.674,2.674,2.674,2.674,2.674,2.674,2.664,2.664,2.664,2.664,2.664,2.664,2.664,2.664,2.664,2.664,2.664,2.664,2.664,2.664,2.664,2.653,2.653,2.653,2.653,2.653,2.653,2.664,2.664,2.674,2.674,2.674,2.674,2.674,2.684,2.674,2.674,2.674,2.674,2.674,2.674,2.674,2.674,2.674,2.674,2.664,2.664,2.674,2.674,2.674,2.674,2.674,2.674,2.674,2.684,2.684,2.684,2.684,2.684,2.684,2.695,2.695,2.695,2.695,2.695,2.695,2.695,2.684,2.674,2.653,2.643,2.623,2.603,2.583,2.564,2.545,2.526,2.508,2.49,2.481,2.463,2.437,2.428,2.42,2.403,2.386,2.378,2.37,2.361,0,0,0,0,0,0,0,0,0,0,0,0,0,0,0,0.934,0.934,0.935,0.934,0.934,0.934,0.935,0.935,0.935,0.935,0.935,0.935,0.935,0.936,0.936,0.935,0.935,0.935,0.935,0.936,0.938,0.938,0.939,0.94,0.94,0.941,0.94,0.939,0.936,0.935,0.935,0.934,0,0,0,0,1.867,1.852,1.847,1.842,1.837,1.833,1.828,1.818,1.813,1.813,1.808,1.808,1.804,1.804,1.799,1.794,1.79,1.79,1.785,1.78,1.776,1.776,1.771,1.767,1.771,1.767,1.767,1.78,1.804,1.823,0,0,0,2.545,2.613,2.623,2.623,2.633,2.633,2.643,2.643,2.643,2.653,2.664,2.674,2.695,2.705,2.705,2.727,2.727,2.727,2.738,2.727,2.738,2.727,2.727,2.716,2.716,2.716,2.727,2.727,2.727,2.716,2.716,2.705,2.716,2.727,2.727,2.738,2.738,2.749,2.76,2.771,2.782,2.782,2.782,2.771,2.771,2.771,2.76,2.749,2.749,2.738,2.738,2.727,2.716,2.705,2.695,2.684,2.674,2.653,2.643,2.643,2.643,2.643,2.653,2.664,2.674,2.684,2.705,2.727,2.738,2.76,2.771,2.782,2.793,2.805,2.816,2.816,2.828,2.828,2.828,2.84,2.84,2.84,2.851,2.851,2.851,2.851,2.863,2.851,2.851,2.84,0,2.805,2.782,2.749,2.716,2.695,2.684,2.664,2.653,2.643,2.643,2.653,2.664,0,0,0,0,0,0,0,0,0,2.07,2.051,2.039,2.033,2.033,2.027,2.021,2.009,2.009,2.003,2.003,0,1.986,1.98,1.975,0,0,0,0,0,0,1.93,1.93,1.936,1.93,1.936,1.936,1.936,1.936,1.936,1.936,1.93,1.93,1.93,1.92,1.92,1.909,1.904,1.893,1.888,1.878,1.867,1.862,1.847,0,0,0,0,0,0,0,0,0,0,0,1.27,1.268,1.268,1.268,1.268,1.266,1.266,1.266,1.263,1.263,1.261,1.259,1.256,1.254,1.249,1.247,1.24,1.238,1.234,1.232,1.229,1.225,1.223,1.218,1.214,1.212,1.206,1.201,1.197,1.193,1.189,1.185,1.181,1.177,1.173,1.171,1.167,1.163,1.161,1.157
2.583,2.583,2.583,2.583,2.583,2.583,2.583,2.583,2.593,2.593,2.603,2.603,2.613,2.613,2.623,2.623,2.633,2.633,2.643,2.643,2.653,2.653,2.653,2.653,2.643,2.653,2.643,2.633,2.633,2.623,2.623,2.613,2.613,2.613,2.613,2.613,2.613,2.613,2.623,2.623,2.623,2.623,2.623,2.623,2.623,2.623,2.623,2.623,2.623,2.623,2.623,2.613,2.613,2.613,2.613,2.603,2.603,2.603,2.603,2.603,2.603,2.613,2.613,2.623,2.623,2.623,2.633,2.633,2.643,2.653,2.664,2.664,2.664,2.664,2.664,2.664,2.674,2.664,2.664,2.664,2.664,2.653,2.643,0,0,0,0,0,0,0,0,0,0,0,0,0,0,0,0,0,0,0,0,0,0.899,0.899,0.899,0.899,0.898,0.897,0.896,0.897,0.897,0.897,0.898,0.898,0.898,0.897,0.897,0.898,0.898,0.897,0.896,0.897,0.897,0.898,0.899,0.902,0.902,0.903,0.903,0.903,0.904,0.905,0.905,0.907,0.908,0.909,0.909,0.909,0.91,0.911,0,2.623,2.633,2.633,2.633,2.623,2.643,2.633,2.633,2.633,2.633,2.633,2.643,2.643,2.643,2.643,2.643,2.643,2.643,2.633,2.633,2.633,2.633,2.633,2.633,2.643,2.643,2.643,2.653,2.653,2.653,2.664,2.664,2.664,2.664,2.674,2.674,2.664,2.664,2.664,2.664,2.664,2.664,2.664,2.664,2.664,2.664,2.664,2.674,2.674,2.674,2.674,2.674,2.664,2.664,2.664,2.664,2.653,2.653,2.653,2.653,2.653,2.653,2.664,2.664,2.674,2.674,2.674,2.674,2.674,2.674,2.674,2.674,2.674,2.674,2.674,2.674,2.674,2.674,2.674,2.674,2.674,2.674,2.674,2.674,2.674,2.674,2.674,2.674,2.674,2.684,2.684,2.684,2.684,2.684,2.695,2.695,2.695,2.695,2.695,2.695,2.695,2.684,2.674,2.664,2.643,2.623,2.603,2.583,2.555,2.536,2.517,2.499,2.481,2.463,2.446,2.428,2.42,2.403,2.394,2.386,2.378,2.361,2.361,2.345,2.345,0,0,0,0,0,0,0,0,0,0,0,0,0,0,0,0.934,0.934,0,0,0.935,0.935,0.935,0.935,0.936,0,0.936,0.936,0.936,0.935,0,0,0,0,0,0,0,0,0,0.941,0,0,0,0,0,0,0,0,1.883,1.872,1.867,1.857,1.852,1.847,1.842,1.837,1.828,1.823,1.818,1.818,1.813,1.813,1.808,1.799,1.799,1.794,1.794,1.79,1.785,1.78,1.78,1.776,1.776,1.771,1.771,1.771,1.771,1.78,1.799,1.79,1.794,0,0,0,2.446,2.545,2.623,2.623,2.633,2.633,2.633,2.643,2.643,2.653,2.664,2.674,2.695,2.705,2.705,2.716,2.727,2.727,2.727,2.738,2.727,2.727,2.716,2.716,2.716,2.716,2.727,2.727,2.716,2.716,2.705,2.716,2.727,2.727,2.738,2.738,2.749,2.76,2.771,2.771,2.771,2.771,2.771,2.771,2.76,2.76,2.749,2.738,2.738,2.738,2.727,2.716,2.705,2.695,2.674,2.664,2.643,2.633,2.623,2.623,2.623,2.623,2.633,2.653,2.674,2.684,2.705,2.727,2.738,2.749,2.76,2.771,2.782,2.793,2.805,2.816,2.828,2.828,2.84,2.84,2.851,2.851,2.863,2.863,2.863,2.863,2.851,2.84,2.84,2.828,2.805,2.782,2.76,2.727,2.716,2.695,2.684,2.674,2.664,2.664,2.664,2.674,2.684,2.695,2.695,2.695,0,0,0,0,2.175,2.114,2.076,2.057,2.045,2.033,2.027,2.021,2.015,2.009,2.003,2.003,1.986,1.986,1.975,1.969,1.969,1.958,0,1.947,1.936,1.936,1.936,1.936,1.93,1.936,1.936,1.941,1.941,1.941,1.941,1.941,1.941,1.941,1.941,1.93,1.925,1.914,1.904,1.893,1.888,1.878,1.867,1.857,1.852,1.842,1.837,0,0,0,0,0,0,0,0,0,0,1.27,1.268,1.268,1.268,1.268,1.266,1.268,1.266,1.263,1.261,1.259,1.256,1.254,1.249,1.245,1.243,1.238,1.234,1.232,1.229,1.225,1.221,1.218,1.214,1.21,1.206,1.201,1.197,1.193,1.187,1.183,1.179,1.175,1.173,1.169,1.167,1.163,1.161,1.157
2.583,2.583,2.583,2.583,2.583,2.583,2.583,2.593,2.593,2.603,2.603,2.613,2.613,2.623,2.623,2.623,2.633,2.633,2.633,2.643,2.643,2.643,2.643,2.643,2.643,2.633,2.633,2.633,2.623,2.623,2.613,2.613,2.613,2.603,2.603,2.603,2.613,2.613,2.613,2.613,2.613,2.613,2.613,2.613,2.613,2.613,2.613,2.613,2.613,2.613,2.613,2.613,2.613,2.603,2.603,2.603,2.603,2.603,2.603,2.603,2.603,2.603,2.613,2.613,2.613,2.623,2.633,2.633,2.643,2.643,2.653,2.653,2.664,2.664,2.664,2.664,2.664,2.664,2.664,2.664,2.664,2.653,2.643,0,0,0,0,0,0,0,0,0,0,0,0,0,0,0,0,0,0,0,0,0.899,0.899,0.899,0.898,0.898,0.899,0.898,0.897,0.897,0.898,0.898,0.899,0.899,0.898,0.898,0.897,0.898,0.898,0.898,0.897,0.897,0.897,0.899,0.899,0.902,0.902,0.903,0.903,0.904,0.904,0.904,0.905,0.907,0.908,0.909,0.909,0.91,0.911,0,0,2.623,2.633,2.633,2.623,2.643,2.633,2.633,2.633,2.633,2.643,2.643,2.643,2.643,2.643,2.643,2.643,2.643,2.643,2.643,2.643,2.643,2.643,2.643,2.643,2.643,2.643,2.643,2.643,2.643,2.643,2.653,2.653,2.653,2.664,2.664,2.664,2.664,2.664,2.664,2.664,2.664,2.664,2.664,2.664,2.664,2.664,2.664,2.674,2.674,2.674,2.674,2.674,2.674,2.664,2.664,2.664,2.653,2.653,2.653,2.653,2.653,2.653,2.664,2.664,2.664,2.664,2.674,2.674,2.674,2.674,2.674,2.674,2.674,2.674,2.674,2.674,2.674,2.674,2.674,2.674,2.664,2.664,2.674,2.674,2.674,2.674,2.674,2.674,2.674,2.674,2.684,2.684,2.684,2.684,2.684,2.695,2.695,2.695,2.695,2.695,2.695,2.684,2.674,2.664,2.643,2.623,2.593,2.574,2.555,2.526,2.508,2.481,2.463,2.446,2.428,2.42,2.403,2.394,2.386,2.37,2.37,2.361,2.353,2.345,2.337,2.329,2.329,2.329,2.329,2.322,2.329,0,0,0,0,0,0,0,0,0,0,0,0,0,0,0,0,0,0,0,0,0,0,0,0,0,0,0,1.947,1.947,1.947,1.941,1.936,1.93,1.92,1.909,1.904,1.898,1.893,1.888,1.883,1.878,1.878,1.872,1.867,1.862,1.857,1.847,1.842,1.837,1.833,1.828,1.823,1.818,1.818,1.813,1.808,1.804,1.799,1.794,1.79,1.785,1.785,1.78,1.78,1.776,1.776,1.771,1.776,1.776,1.771,1.78,1.79,1.767,1.767,1.744,1.74,1.753,0,0,2.623,2.623,2.623,2.623,2.623,2.633,2.633,2.643,2.653,2.664,2.674,2.684,2.695,2.705,2.716,2.716,2.727,2.727,2.727,2.716,2.716,2.716,2.716,2.716,2.716,2.716,2.716,2.716,2.705,2.716,2.727,2.727,2.738,2.738,2.749,2.76,2.76,2.771,2.771,2.771,2.76,2.76,2.76,2.749,2.749,2.738,2.738,2.727,2.727,2.716,2.705,2.695,2.674,2.653,2.633,2.613,2.613,2.613,2.613,2.613,2.623,2.633,2.643,2.664,2.684,2.705,2.716,2.727,2.738,2.76,2.771,2.782,2.793,2.805,2.816,2.828,2.84,2.84,2.851,2.851,2.863,2.863,2.863,2.851,2.851,2.84,2.84,2.828,2.816,2.793,2.771,2.738,2.727,2.705,2.695,2.684,2.674,2.674,2.674,2.674,2.684,2.684,2.684,2.674,0,0,0,0,0,2.141,2.102,2.07,2.051,2.039,2.027,2.021,2.015,2.009,2.003,2.003,1.992,1.986,1.975,1.969,1.969,1.958,1.952,1.941,1.936,1.936,1.936,1.936,1.936,1.936,1.941,1.947,1.947,1.952,1.952,1.952,1.952,1.947,1.941,1.936,1.925,1.914,1.904,1.893,1.888,1.872,1.862,1.857,1.847,1.842,1.833,1.828,0,0,0,0,0,0,0,0,0,1.268,1.268,1.268,1.268,1.268,1.268,1.268,1.268,1.266,1.263,1.259,1.259,1.254,1.249,1.245,1.24,1.238,1.236,1.232,1.227,1.225,1.221,1.216,1.214,1.208,1.203,1.199,1.195,1.191,1.187,1.181,1.179,1.175,1.171,1.169,1.165,1.163,1.161,1.157
2.583,2.583,2.583,2.583,2.583,2.583,2.583,2.583,2.593,2.593,2.593,2.603,2.603,2.613,2.613,2.623,2.623,2.623,2.633,2.633,2.643,2.643,2.643,2.643,2.643,2.633,2.633,2.623,2.623,2.623,2.613,2.613,2.613,2.613,2.613,2.613,2.613,2.613,2.613,2.613,2.613,2.623,2.613,2.613,2.613,2.613,2.613,2.613,2.613,2.613,2.613,2.613,2.613,2.613,2.603,2.603,2.603,2.603,2.603,2.603,2.613,2.613,2.613,2.613,2.623,2.623,2.633,2.643,2.643,2.653,2.653,2.653,2.653,2.664,2.664,2.664,2.664,2.664,2.653,2.653,2.653,2.653,2.643,2.633,2.633,2.623,0,0,0,0,0,0,0,0,0,0,0,0,0,0,0,0,0,0,0,0.899,0.899,0.898,0.898,0.897,0.896,0.896,0.897,0.898,0.899,0.899,0.899,0.898,0.898,0.898,0.898,0.898,0.898,0.898,0.898,0.899,0.901,0.902,0.902,0.903,0.903,0.904,0.904,0.904,0.905,0.907,0.908,0.909,0.91,0.91,0.911,0,2.623,2.633,2.633,2.633,2.633,2.633,2.633,2.633,2.643,2.643,2.643,2.643,2.643,2.643,2.643,2.643,2.643,2.643,2.643,2.643,2.643,2.643,2.643,2.643,2.643,2.643,2.643,2.643,2.643,2.643,2.643,2.643,2.643,2.653,2.653,2.653,2.653,2.653,2.653,2.653,2.653,2.653,2.653,2.653,2.653,2.653,2.664,2.664,2.664,2.664,2.674,2.674,2.674,2.674,2.664,2.664,2.664,2.653,2.653,2.653,2.653,2.653,2.653,2.653,2.653,2.664,2.664,2.664,2.674,2.674,2.674,2.674,2.674,2.674,2.674,2.674,2.674,2.674,2.674,2.674,2.674,2.664,2.664,2.674,2.664,2.674,2.674,2.674,2.674,2.674,2.674,2.674,2.684,2.684,2.684,2.684,2.684,2.695,2.695,2.695,2.695,2.684,2.684,2.674,2.653,2.633,2.613,2.593,2.564,2.536,2.508,2.49,2.463,2.446,2.428,2.411,2.403,2.386,2.378,2.37,2.361,2.353,2.353,2.337,2.337,2.337,2.329,2.322,2.322,2.314,2.314,2.314,2.322,0,0,0,2.446,0,0,2.574,2.603,0,0,2.653,2.664,2.664,2.664,2.664,2.664,0,2.664,0,0,0,0,0,1.992,1.952,1.952,1.947,1.941,1.941,1.936,1.925,1.92,1.914,1.904,1.898,1.888,1.888,1.878,1.878,1.872,1.872,1.872,1.867,1.862,1.857,1.852,1.847,1.842,1.837,1.833,1.823,1.818,1.813,1.808,1.804,1.799,1.794,1.79,1.79,1.785,1.78,1.78,1.78,1.776,1.776,1.776,1.776,1.771,1.771,1.771,1.771,1.758,1.753,1.731,1.727,1.718,1.705,1.697,0,2.613,2.613,2.623,2.623,2.623,2.623,2.633,2.643,2.653,2.664,2.674,2.684,2.695,2.705,2.716,2.716,2.716,2.716,2.716,2.716,2.716,2.716,2.716,2.716,2.716,2.705,2.705,2.705,2.716,2.716,2.727,2.738,2.738,2.749,2.749,2.76,2.76,2.76,2.76,2.749,2.749,2.749,2.738,2.738,2.738,2.727,2.727,2.727,2.716,2.695,2.684,2.664,2.643,2.623,2.603,2.593,2.593,2.583,2.593,2.593,2.613,2.623,2.643,2.653,2.674,2.684,2.705,2.716,2.738,2.749,2.771,2.782,2.805,2.816,2.828,2.84,2.84,2.851,2.851,2.863,2.863,2.863,2.851,2.851,2.84,2.84,2.828,2.816,2.793,2.771,2.749,2.727,2.716,2.705,2.695,2.684,2.684,2.684,2.684,2.695,2.695,2.684,2.674,2.643,0,0,0,0,2.161,2.114,2.082,2.057,2.039,2.027,2.021,2.015,2.015,2.009,2.003,1.998,1.992,1.98,1.975,1.969,1.963,1.958,1.947,1.941,1.936,1.936,1.936,1.936,1.936,1.941,1.947,1.952,1.958,1.958,1.958,1.952,1.952,1.947,1.941,1.93,1.914,1.904,1.893,1.883,1.878,1.862,1.852,1.847,1.842,1.833,1.828,1.823,0,0,0,0,0,0,0,0,0,0,0,0,1.27,1.268,1.268,1.266,1.266,1.263,1.261,1.259,1.254,1.249,1.245,1.24,1.238,1.234,1.232,1.227,1.223,1.221,1.216,1.212,1.208,1.201,1.197,1.193,1.189,1.185,1.181,1.177,1.175,1.171,1.169,1.165,1.163,1.161,1.157
2.593,2.583,2.583,2.583,2.583,2.593,2.593,2.593,2.593,2.603,2.603,2.603,2.613,2.613,2.623,2.623,2.623,2.623,2.633,2.633,2.633,2.633,2.633,2.633,2.633,2.633,2.623,2.623,2.623,2.623,2.613,2.613,2.613,2.613,2.613,2.613,2.613,2.613,2.613,2.623,2.623,2.623,2.623,2.623,2.623,2.623,2.623,2.613,2.613,2.613,2.613,2.613,2.613,2.613,2.613,2.613,2.613,2.613,2.613,2.613,2.613,2.613,2.623,2.623,2.623,2.633,2.633,2.643,2.653,2.653,2.653,2.653,2.664,2.664,2.664,2.664,2.664,2.664,2.653,2.653,2.653,2.653,2.643,2.633,2.633,2.623,2.623,2.613,0,0,0,0,0,0,0,0,0,0,0,0,0,0,0,0,0,0,0.899,0.899,0.899,0.898,0.897,0.897,0.898,0.898,0.899,0.899,0.899,0.898,0.898,0.899,0.898,0.898,0.899,0.898,0.899,0.899,0.901,0.902,0.902,0.903,0.903,0.904,0.904,0.905,0.907,0.908,0.909,0.91,0.911,0.911,0,0,2.633,2.633,2.633,2.623,2.633,2.633,2.633,2.643,2.643,2.643,2.643,2.643,2.643,2.643,2.643,2.653,2.653,2.643,2.643,2.643,2.643,2.643,2.643,2.643,2.643,2.643,2.643,2.643,2.643,2.643,2.643,2.643,2.643,2.643,2.643,2.653,2.653,2.653,2.653,2.653,2.653,2.653,2.653,2.653,2.653,2.653,2.653,2.664,2.664,2.664,2.664,2.674,2.664,2.664,2.664,2.664,2.664,2.653,2.653,2.653,2.653,2.653,2.653,2.653,2.653,2.664,2.664,2.664,2.664,2.674,2.674,2.674,2.674,2.674,2.674,2.674,2.674,2.674,2.674,2.674,2.674,2.664,2.664,2.664,2.664,2.664,2.674,2.674,2.674,2.674,2.674,2.674,2.684,2.684,2.684,2.684,2.684,2.684,2.684,2.695,2.695,2.684,2.684,2.664,2.653,2.633,2.603,2.583,2.555,2.526,2.49,2.472,2.446,2.428,2.403,2.394,2.378,2.37,2.361,2.353,2.345,2.337,2.329,2.329,2.322,2.322,2.314,2.314,2.306,2.306,2.298,2.306,2.306,2.322,2.353,2.386,2.437,2.472,2.517,2.564,2.603,2.633,2.643,2.653,2.664,2.664,2.664,2.664,2.664,2.664,2.664,2.664,2.508,0,0,0,0,1.952,0,1.947,1.941,1.941,1.936,1.93,1.92,1.914,1.904,1.893,1.888,1.883,1.878,1.872,1.872,1.872,1.872,1.872,1.867,1.862,1.857,1.852,1.847,1.837,1.833,1.823,1.818,1.813,1.808,1.804,1.799,1.794,1.79,1.785,1.78,1.78,1.78,1.78,1.776,1.776,1.776,1.776,1.776,1.776,1.767,1.758,1.749,1.749,1.731,1.731,1.718,1.714,1.705,0,0,2.613,2.623,2.623,2.623,2.613,2.623,2.633,2.643,2.653,2.664,2.664,2.684,2.695,2.705,2.705,2.716,2.705,2.716,2.716,2.705,2.705,2.705,2.705,2.705,2.705,2.705,2.705,2.716,2.716,2.727,2.738,2.738,2.738,2.749,2.749,2.749,2.749,2.749,2.738,2.738,2.738,2.738,2.738,2.727,2.727,2.716,2.716,2.716,2.695,2.674,2.653,2.623,2.613,2.593,2.583,2.574,2.574,2.574,2.583,2.593,2.603,2.613,2.633,2.643,2.664,2.674,2.684,2.705,2.727,2.749,2.771,2.793,2.805,2.816,2.84,2.84,2.851,2.851,2.863,2.863,2.851,2.851,2.851,2.84,2.84,2.828,2.816,2.793,2.782,2.76,2.738,2.727,2.716,2.716,2.705,2.695,2.695,2.695,2.705,2.695,2.695,2.674,2.643,2.564,2.463,0,0,0,2.134,2.089,2.064,2.039,2.027,2.021,2.015,2.009,2.009,2.003,1.992,1.992,1.986,1.975,1.969,1.963,1.952,1.947,1.936,1.936,1.941,1.941,1.936,1.941,1.947,1.947,1.952,1.958,1.958,1.958,1.958,1.952,1.947,1.936,1.925,1.914,1.904,1.893,1.883,1.872,1.862,1.852,1.847,1.842,1.833,1.833,1.828,1.828,1.823,0,0,0,0,0,0,0,0,0,0,0,0,1.27,1.268,1.266,1.263,1.261,1.259,1.254,1.247,1.243,1.24,1.236,1.234,1.229,1.225,1.223,1.218,1.214,1.21,1.206,1.201,1.197,1.191,1.187,1.183,1.179,1.177,1.173,1.171,1.169,1.165,1.163,1.161,1.159
2.593,2.593,2.593,2.593,2.593,2.603,2.603,2.603,2.603,2.603,2.613,2.613,2.613,2.623,2.623,2.623,2.623,2.623,2.633,2.633,2.633,2.633,2.633,2.623,2.623,2.623,2.623,2.623,2.623,2.623,2.623,2.623,2.623,2.623,2.623,2.623,2.623,2.623,2.623,2.623,2.623,2.623,2.623,2.623,2.623,2.623,2.623,2.613,2.613,2.613,2.613,2.613,2.613,2.613,2.613,2.613,2.613,2.613,2.613,2.623,2.623,2.623,2.623,2.633,2.633,2.633,2.643,2.643,2.653,2.653,2.653,2.653,2.653,2.653,2.664,2.664,2.653,2.653,2.653,2.643,2.653,2.643,2.643,2.633,2.633,2.623,2.623,2.623,2.613,2.613,2.613,2.613,0,0,0,0,0,0,0,0,0,0,2.664,2.664,2.664,2.664,0,0,0,0.897,0,0.897,0,0.898,0,0,0,0,0,0,0,0,0,0,0,0.901,0.901,0.903,0.903,0.903,0.903,0,0,0,0.907,0.908,0,0.91,0,0,2.633,2.633,2.633,2.633,2.633,2.623,2.623,2.633,2.643,2.643,2.643,2.643,2.643,2.643,2.653,2.653,2.653,2.653,2.653,2.653,2.643,2.643,2.643,2.643,2.643,2.643,2.643,2.643,2.643,2.643,2.643,2.643,2.643,2.643,2.643,2.643,2.643,2.643,2.643,2.653,2.653,2.653,2.653,2.653,2.653,2.653,2.653,2.653,2.653,2.664,2.664,2.664,2.664,2.664,2.664,2.664,2.664,2.664,2.664,2.664,2.664,2.664,2.653,2.653,2.653,2.653,2.653,2.664,2.664,2.664,2.664,2.664,2.664,2.674,2.674,2.674,2.674,2.674,2.674,2.674,2.674,2.674,2.664,2.664,2.664,2.664,2.664,2.664,2.674,2.674,2.674,2.674,2.674,2.674,2.674,2.684,2.684,2.684,2.684,2.684,2.684,2.684,2.684,2.684,2.674,2.664,2.653,2.623,2.603,2.574,2.536,2.508,2.481,2.454,2.428,2.403,2.386,2.37,2.361,2.353,2.345,2.337,2.329,2.322,2.322,2.314,2.314,2.314,2.306,2.306,2.298,2.298,2.291,2.291,2.291,2.306,2.337,2.378,2.42,2.454,2.508,2.555,2.593,2.623,2.643,2.643,2.653,2.664,2.664,2.664,2.664,2.664,2.664,2.664,0,0,0,0,2.009,1.958,1.952,1.947,1.941,1.936,1.93,1.925,1.92,1.909,1.898,1.888,1.888,1.878,1.872,1.872,1.867,1.872,1.867,1.872,1.867,1.867,1.862,1.852,1.847,1.842,1.833,1.823,1.818,1.813,1.808,1.799,1.794,1.79,1.785,1.78,1.78,1.78,1.78,1.78,1.776,1.776,1.776,1.776,1.776,1.776,1.767,1.758,1.749,1.749,1.731,1.731,1.722,1.714,1.709,1.705,0,0,2.613,2.613,2.613,2.613,2.623,2.633,2.633,2.643,2.643,2.653,2.664,2.674,2.684,2.695,2.695,2.695,2.705,2.705,2.695,2.695,2.705,2.705,2.705,2.705,2.705,2.705,2.705,2.716,2.716,2.727,2.738,2.738,2.738,2.738,2.738,2.738,2.738,2.727,2.727,2.727,2.727,2.727,2.727,2.716,2.716,2.716,2.705,2.684,2.664,2.643,2.623,2.603,2.583,2.574,2.564,2.564,2.555,2.564,2.574,2.583,2.593,2.603,2.613,2.623,2.643,2.653,2.674,2.695,2.716,2.738,2.771,2.793,2.805,2.828,2.84,2.851,2.851,2.863,2.851,2.851,2.851,2.851,2.84,2.84,2.828,2.816,2.805,2.782,2.76,2.749,2.738,2.727,2.727,2.716,2.716,2.705,2.716,2.716,2.705,2.705,2.684,2.643,2.583,2.499,2.403,2.306,2.224,2.161,2.114,2.076,2.045,2.033,2.021,2.015,2.009,2.009,2.003,1.992,1.986,1.98,1.975,1.969,1.963,1.952,1.947,1.941,1.941,1.941,1.941,1.941,1.941,1.947,1.952,1.958,1.958,1.958,1.952,1.952,1.947,1.941,1.936,1.925,1.914,1.904,1.893,1.883,1.872,1.862,1.857,1.847,1.842,1.837,1.833,1.828,1.828,1.828,1.823,0,0,0,0,0,0,0,0,0,0,0,0,0,1.266,0,0,1.259,1.254,1.247,1.243,1.238,1.236,1.232,1.227,1.223,1.221,1.216,1.214,1.21,1.203,1.199,1.195,1.191,1.187,1.183,1.179,1.175,1.173,1.171,1.169,1.167,1.163,1.161,1.159
2.603,2.603,2.603,2.603,2.603,2.603,2.613,2.613,2.613,2.613,2.613,2.623,2.623,2.623,2.623,2.623,2.623,2.623,2.623,2.623,2.623,2.623,2.623,2.623,2.623,2.623,2.613,2.613,2.613,2.613,2.613,2.623,2.623,2.623,2.623,2.623,2.623,2.623,2.633,2.633,2.633,2.633,2.633,2.623,2.623,2.623,2.623,2.613,2.613,2.613,2.613,2.613,2.613,2.613,2.613,2.623,2.623,2.623,2.623,2.623,2.623,2.623,2.633,2.633,2.633,2.643,2.643,2.653,2.653,2.653,2.653,2.653,2.653,2.653,2.653,2.653,2.653,2.653,2.643,2.643,2.643,2.643,2.633,2.633,2.623,2.623,2.623,2.623,2.623,2.613,2.613,2.613,2.613,2.603,2.613,2.613,2.623,2.633,2.633,2.643,2.643,2.653,2.653,2.653,2.653,2.653,2.653,2.664,2.653,2.653,0,0,0,2.643,2.643,2.643,2.643,2.653,2.653,2.653,0,0,0,0,0,0,0,0,0,0,0,0,0,0,0,0,0,2.653,2.643,2.643,2.643,2.643,2.633,2.633,2.633,2.633,2.633,2.633,2.643,2.643,2.643,2.643,2.643,2.653,2.653,2.653,2.653,2.653,2.653,2.653,2.653,2.653,2.643,2.643,2.643,2.643,2.643,2.643,2.643,2.643,2.643,2.643,2.643,2.643,2.643,2.643,2.643,2.643,2.643,2.643,2.653,2.653,2.653,2.653,2.653,2.653,2.653,2.653,2.653,2.653,2.653,2.664,2.664,2.664,2.664,2.664,2.664,2.664,2.664,2.664,2.664,2.664,2.664,2.664,2.664,2.664,2.664,2.664,2.664,2.664,2.664,2.664,2.664,2.674,2.674,2.674,2.674,2.674,2.674,2.674,2.674,2.664,2.664,2.664,2.664,2.664,2.664,2.664,2.674,2.674,2.674,2.674,2.674,2.674,2.674,2.684,2.684,2.684,2.684,2.684,2.684,2.684,2.684,2.684,2.674,2.664,2.643,2.623,2.593,2.564,2.526,2.49,2.463,2.437,2.403,2.378,2.361,2.353,2.345,2.337,2.329,2.322,2.314,2.314,2.306,2.306,2.298,2.298,2.291,2.291,2.283,2.283,2.283,2.275,2.275,2.298,2.322,2.353,2.394,2.437,2.49,2.536,2.574,2.613,2.633,2.643,2.653,2.664,2.664,2.664,2.664,2.664,2.664,2.664,0,0,0,0,2.009,1.952,1.947,1.941,1.941,1.936,1.925,1.92,1.914,1.909,1.893,1.888,1.878,1.878,1.872,1.867,1.867,1.862,1.867,1.867,1.867,1.862,1.857,1.852,1.847,1.842,1.833,1.823,1.818,1.808,1.804,1.799,1.79,1.785,1.78,1.78,1.78,1.776,1.776,1.78,1.776,1.78,1.776,1.776,1.776,1.771,1.767,1.758,1.744,1.74,1.731,1.727,1.722,1.718,1.709,1.709,1.709,0,2.545,2.613,2.613,2.613,2.613,2.623,2.623,2.633,2.643,2.643,2.653,2.664,2.674,2.684,2.684,2.684,2.695,2.695,2.695,2.695,2.695,2.705,2.705,2.705,2.705,2.705,2.705,2.705,2.716,2.716,2.727,2.727,2.727,2.727,2.738,2.727,2.727,2.716,2.716,2.716,2.716,2.716,2.716,2.716,2.716,2.705,2.695,2.684,2.664,2.643,2.613,2.603,2.583,2.574,2.564,2.555,2.555,2.555,2.564,2.564,2.574,2.574,2.583,2.593,2.613,2.623,2.633,2.653,2.684,2.705,2.738,2.76,2.782,2.793,2.816,2.828,2.84,2.84,2.84,2.84,2.851,2.84,2.84,2.84,2.828,2.816,2.805,2.793,2.782,2.76,2.749,2.749,2.738,2.738,2.727,2.738,2.727,2.727,2.727,2.716,2.695,2.664,2.603,2.526,2.437,2.345,2.253,2.182,2.128,2.089,2.057,2.033,2.021,2.015,2.009,2.009,2.003,1.992,1.986,1.98,1.975,1.969,1.963,1.952,1.947,1.941,1.941,1.941,1.941,1.941,1.941,1.947,1.952,1.952,1.958,1.958,1.952,1.947,1.947,1.936,1.925,1.92,1.909,1.904,1.893,1.883,1.872,1.862,1.857,1.847,1.842,1.837,1.833,1.833,1.828,1.828,1.828,1.823,0,0,0,0,0,0,0,0,0,0,0,0,0,0,0,0,0,1.247,1.243,1.238,1.236,1.232,1.227,1.221,1.218,1.214,1.212,1.208,1.203,1.199,1.195,1.191,1.187,1.183,1.179,1.177,1.173,1.171,1.169,1.167,1.165,1.163,1.161
2.613,2.613,2.613,2.613,2.613,2.613,2.613,2.623,2.623,2.623,2.623,2.623,2.623,2.623,2.623,2.623,2.623,2.623,2.623,2.623,2.623,2.623,2.623,2.613,2.613,2.613,2.613,2.613,2.613,2.613,2.613,2.623,2.623,2.623,2.623,2.633,2.633,2.633,2.633,2.633,2.633,2.633,2.633,2.633,2.623,2.623,2.623,2.623,2.613,2.613,2.613,2.613,2.613,2.613,2.623,2.623,2.623,2.623,2.623,2.623,2.633,2.633,2.633,2.643,2.643,2.643,2.643,2.653,2.653,2.653,2.653,2.653,2.653,2.653,2.653,2.653,2.643,2.643,2.643,2.633,2.643,2.643,2.633,2.633,2.623,2.623,2.623,2.623,2.623,2.623,2.613,2.613,2.613,2.603,2.613,2.613,2.623,2.623,2.633,2.643,2.643,2.643,2.653,2.653,2.653,2.653,2.653,2.653,2.653,2.653,2.643,2.643,2.643,2.643,2.643,2.643,2.643,2.653,2.643,2.653,2.653,2.653,2.643,2.643,2.643,0,2.643,0,0,0,2.633,2.633,2.643,2.633,2.643,0,2.653,2.653,2.643,2.643,2.643,2.643,2.643,2.643,2.643,2.633,2.633,2.643,2.643,2.643,2.643,2.643,2.643,2.653,2.653,2.653,2.653,2.653,2.653,2.653,2.653,2.653,2.643,2.643,2.643,2.643,2.643,2.643,2.643,2.643,2.643,2.643,2.643,2.643,2.643,2.643,2.643,2.643,2.643,2.643,2.643,2.653,2.653,2.653,2.653,2.653,2.653,2.653,2.653,2.653,2.653,2.653,2.653,2.664,2.664,2.664,2.664,2.664,2.664,2.664,2.664,2.664,2.664,2.664,2.664,2.664,2.664,2.664,2.664,2.664,2.664,2.664,2.664,2.674,2.674,2.674,2.674,2.674,2.674,2.674,2.664,2.664,2.664,2.664,2.664,2.664,2.664,2.664,2.664,2.674,2.674,2.674,2.674,2.674,2.684,2.684,2.684,2.684,2.684,2.684,2.684,2.684,2.684,2.684,2.674,2.664,2.643,2.623,2.593,2.555,2.517,2.481,2.446,2.42,2.386,2.361,2.345,2.337,2.329,2.322,2.314,2.306,2.298,2.298,2.291,2.283,2.283,2.275,2.275,2.268,2.268,2.261,2.261,2.268,2.268,2.275,2.306,2.329,2.378,2.411,2.463,2.517,2.555,2.603,2.623,2.643,2.653,2.664,2.664,2.664,2.664,2.664,2.664,2.664,2.517,0,0,0,2.015,1.952,1.947,1.941,1.936,1.93,1.92,1.914,1.909,1.898,1.888,1.878,1.872,1.867,1.862,1.862,1.857,1.857,1.857,1.857,1.857,1.857,1.852,1.852,1.847,1.837,1.828,1.823,1.818,1.804,1.799,1.794,1.785,1.785,1.78,1.776,1.771,1.776,1.776,1.776,1.776,1.776,1.776,1.776,1.776,1.771,1.762,1.753,1.744,1.735,1.727,1.722,1.718,1.709,1.709,1.709,1.705,0,0,2.613,2.613,2.603,2.613,2.623,2.623,2.633,2.633,2.643,2.643,2.653,2.664,2.674,2.674,2.684,2.684,2.684,2.684,2.695,2.695,2.695,2.705,2.705,2.705,2.705,2.705,2.705,2.716,2.716,2.716,2.716,2.716,2.716,2.716,2.716,2.716,2.705,2.705,2.705,2.705,2.705,2.705,2.705,2.705,2.695,2.695,2.674,2.653,2.633,2.613,2.593,2.583,2.574,2.564,2.545,2.545,2.545,2.555,2.555,2.555,2.555,2.555,2.564,2.574,2.583,2.603,2.613,2.643,2.674,2.695,2.727,2.738,2.771,2.782,2.805,2.816,2.816,2.828,2.828,2.84,2.84,2.84,2.84,2.84,2.828,2.816,2.805,2.793,2.782,2.782,2.771,2.771,2.771,2.76,2.76,2.76,2.749,2.749,2.727,2.705,2.674,2.623,2.564,2.472,2.378,2.283,0,2.134,2.089,2.057,2.033,2.021,2.015,2.009,2.009,2.003,1.992,1.986,1.98,1.975,1.969,1.963,1.958,1.947,1.941,1.941,1.941,1.941,1.941,1.941,1.947,1.952,1.952,1.952,1.947,1.947,1.941,1.936,1.93,1.92,1.914,1.909,1.898,1.893,1.883,1.872,1.867,1.857,1.852,1.842,1.837,1.837,1.833,1.833,1.828,1.828,1.828,1.823,0,0,0,0,0,0,0,0,0,0,0,0,0,0,0,0,0,1.24,1.236,1.234,1.229,1.225,1.221,1.218,1.214,1.21,1.206,1.201,1.197,1.193,1.191,1.187,1.183,1.179,1.177,1.173,1.171,1.169,1.167,1.167,1.165,1.163
2.623,2.623,2.623,2.623,2.623,2.623,2.623,2.623,2.623,2.623,2.623,2.623,2.623,2.623,2.623,2.623,2.623,2.623,2.613,2.613,2.613,2.613,2.613,2.613,2.613,2.613,2.603,2.613,2.613,2.613,2.613,2.623,2.623,2.633,2.633,2.633,2.633,2.633,2.633,2.633,2.633,2.633,2.633,2.633,2.623,2.623,2.623,2.623,2.613,2.613,2.613,2.613,2.613,2.623,2.623,2.623,2.623,2.623,2.633,2.633,2.633,2.643,2.643,2.643,2.643,2.643,2.643,2.653,2.653,2.653,2.653,2.653,2.643,2.643,2.643,2.643,2.643,2.643,2.633,2.633,2.633,2.633,2.633,2.633,2.633,2.633,2.633,2.623,2.623,2.623,2.623,2.623,2.613,2.613,2.623,2.613,2.623,2.633,2.633,2.643,2.643,2.653,2.664,2.664,2.664,2.664,2.664,2.653,2.653,2.653,2.653,2.643,2.643,2.643,2.643,2.643,2.643,2.653,2.653,2.653,2.643,2.643,2.643,2.643,2.643,2.643,2.643,2.643,2.633,2.633,2.633,2.633,2.633,2.633,2.633,2.643,2.643,2.653,2.643,2.653,2.653,2.643,2.643,2.643,2.643,2.633,2.633,2.643,2.643,2.643,2.643,2.643,2.643,2.653,2.653,2.653,2.653,2.653,2.653,2.653,2.653,2.653,2.643,2.643,2.643,2.643,2.643,2.643,2.643,2.643,2.643,2.643,2.643,2.643,2.643,2.643,2.643,2.643,2.643,2.643,2.643,2.653,2.653,2.653,2.653,2.653,2.653,2.653,2.653,2.653,2.653,2.653,2.653,2.653,2.653,2.664,2.664,2.664,2.664,2.664,2.664,2.664,2.664,2.664,2.664,2.664,2.664,2.664,2.664,2.664,2.664,2.664,2.664,2.674,2.674,2.674,2.674,2.674,2.674,2.674,2.664,2.664,2.664,2.664,2.664,2.664,2.664,2.664,2.664,2.674,2.674,2.674,2.674,2.674,2.684,2.684,2.684,2.684,2.684,2.684,2.684,2.684,2.684,2.674,2.674,2.664,2.653,2.623,2.583,2.555,2.508,2.472,2.437,2.403,2.37,2.345,2.329,2.314,2.306,2.298,2.298,2.291,2.283,2.275,2.275,2.268,2.261,2.261,2.253,2.253,2.246,2.246,2.246,2.246,2.253,2.261,2.283,2.314,2.353,2.386,2.437,2.49,2.536,2.574,2.603,2.633,2.653,2.664,2.664,2.674,2.664,2.664,2.674,2.674,2.526,0,0,0,2.021,1.947,1.941,1.941,1.93,1.925,1.914,1.909,1.904,1.893,1.878,1.872,1.867,1.862,1.857,1.852,1.847,1.847,1.847,1.852,1.852,1.847,1.847,1.842,1.837,1.833,1.823,1.818,1.808,1.804,1.794,1.79,1.785,1.78,1.776,1.771,1.771,1.771,1.771,1.771,1.771,1.771,1.771,1.771,1.771,1.767,1.758,1.749,1.74,1.735,1.727,1.718,1.718,1.709,1.709,1.709,1.705,1.705,1.722,0,2.545,2.613,2.613,2.603,2.623,2.633,2.633,2.643,2.643,2.653,2.664,2.664,2.674,2.674,2.674,2.684,2.684,2.684,2.684,2.695,2.695,2.695,2.705,2.695,2.705,2.705,2.705,2.716,2.716,2.716,2.716,2.716,2.716,2.716,2.705,2.705,2.705,2.695,2.695,2.695,2.695,2.695,2.695,2.684,2.684,2.664,2.643,2.633,2.613,2.593,2.583,2.564,2.564,2.555,2.545,2.545,2.545,2.545,2.545,2.545,2.545,2.545,2.555,2.555,2.564,2.583,2.603,2.633,2.664,2.684,2.705,2.727,2.749,2.76,2.771,2.793,2.793,2.805,2.816,2.828,2.828,2.84,2.84,2.84,2.828,2.816,2.805,2.805,2.805,2.805,2.793,2.793,2.793,2.782,2.782,2.771,2.76,2.738,2.716,2.674,2.633,2.583,2.499,2.42,0,0,2.147,2.095,2.057,2.033,2.021,2.015,2.009,2.009,2.003,1.992,1.986,1.98,1.975,1.975,1.963,1.958,1.952,1.947,1.941,1.941,1.941,1.941,1.941,1.947,1.947,1.947,1.947,1.947,1.941,1.936,1.93,1.92,1.914,1.909,1.904,1.893,1.888,1.883,1.872,1.867,1.862,1.852,1.847,1.842,1.837,1.837,1.833,1.833,1.833,1.828,1.823,0,0,0,0,0,0,0,0,0,0,0,0,0,0,0,0,0,0,0,0,1.229,1.225,1.221,1.216,1.214,1.21,1.206,1.201,1.197,1.193,1.191,1.187,1.183,1.181,1.177,1.175,1.173,1.171,1.169,1.167,1.165,1.165
2.623,2.623,2.623,2.623,2.633,2.633,2.633,2.633,2.633,2.633,2.633,2.633,2.623,2.623,2.623,2.623,2.623,2.613,2.613,2.613,2.613,2.613,2.613,2.603,2.603,2.603,2.603,2.603,2.613,2.613,2.613,2.623,2.623,2.633,2.633,2.633,2.633,2.633,2.643,2.633,2.633,2.633,2.633,2.633,2.633,2.623,2.623,2.623,2.613,2.613,2.613,2.613,2.623,2.623,2.623,2.623,2.623,2.633,2.633,2.643,2.643,2.643,2.643,2.643,2.643,2.643,2.653,2.653,2.653,2.653,2.643,2.643,2.643,2.643,2.643,2.643,2.643,2.633,2.633,2.633,2.633,2.633,2.633,2.633,2.633,2.633,2.633,2.633,2.633,2.623,2.623,2.623,2.613,2.613,2.613,2.613,2.633,2.633,2.633,2.633,2.643,2.653,2.653,2.664,2.653,2.653,2.643,2.653,2.653,2.653,2.643,2.643,2.643,2.643,2.643,2.643,2.643,2.643,2.643,2.643,2.643,2.643,2.643,2.643,2.643,2.643,2.643,2.643,2.633,2.633,2.633,2.633,2.633,2.633,2.633,2.643,2.643,2.643,2.643,2.653,2.653,2.653,2.643,2.643,2.643,2.643,2.643,2.643,2.643,2.643,2.643,2.643,2.643,2.643,2.653,2.653,2.653,2.653,2.653,2.653,2.653,2.653,2.643,2.643,2.643,2.643,2.643,2.643,2.643,2.643,2.643,2.643,2.643,2.643,2.643,2.643,2.643,2.643,2.643,2.643,2.643,2.653,2.653,2.653,2.653,2.653,2.653,2.653,2.653,2.653,2.653,2.653,2.653,2.653,2.653,2.653,2.664,2.664,2.664,2.664,2.664,2.664,2.664,2.674,2.664,2.674,2.674,2.674,2.674,2.674,2.674,2.674,2.674,2.674,2.674,2.674,2.674,2.674,2.674,2.674,2.664,2.664,2.664,2.664,2.664,2.664,2.664,2.664,2.674,2.674,2.674,2.674,2.674,2.674,2.684,2.684,2.684,2.684,2.684,2.684,2.684,2.684,2.684,2.674,2.674,2.674,2.653,2.623,2.583,2.545,2.508,2.463,2.428,2.394,2.353,2.329,2.314,2.298,2.291,2.283,2.275,2.268,2.261,2.261,2.253,2.246,2.246,2.238,2.231,2.231,2.231,2.224,2.224,2.224,2.231,2.238,2.261,2.283,2.314,2.353,2.403,2.454,2.508,2.555,2.583,2.623,2.653,2.664,2.664,2.674,2.674,2.674,2.674,2.674,2.517,0,0,0,2.021,1.941,1.941,1.936,1.93,1.92,1.909,1.904,1.898,1.888,1.872,1.867,1.862,1.857,1.852,1.847,1.842,1.837,1.837,1.842,1.842,1.842,1.837,1.837,1.833,1.823,1.818,1.813,1.804,1.799,1.79,1.785,1.78,1.776,1.776,1.771,1.767,1.771,1.771,1.771,1.767,1.767,1.767,1.767,1.767,1.762,1.753,1.749,1.74,1.731,1.727,1.718,1.714,1.709,1.705,1.709,1.705,1.705,1.701,1.731,0,2.613,2.613,2.623,2.623,2.623,2.623,2.633,2.643,2.643,2.653,2.653,2.664,2.664,2.674,2.674,2.674,2.674,2.684,2.684,2.684,2.695,2.695,2.695,2.695,2.705,2.705,2.705,2.705,2.705,2.705,2.705,2.705,2.705,2.705,2.695,2.695,2.695,2.695,2.695,2.695,2.684,2.684,2.674,2.674,2.653,2.643,2.623,2.603,2.593,2.583,2.574,2.564,2.555,2.545,2.545,2.545,2.545,2.536,2.536,2.526,2.526,2.526,2.526,2.545,2.555,2.574,2.593,2.623,2.643,2.664,2.684,2.705,2.716,2.738,2.749,2.76,2.771,2.782,2.805,2.816,2.828,2.84,2.84,2.828,2.828,2.816,2.816,2.816,2.816,2.816,2.805,2.805,2.805,2.793,2.782,2.771,2.76,2.727,2.684,2.633,2.583,2.499,2.428,2.322,2.224,0,0,2.064,2.039,2.021,2.009,2.009,2.003,1.998,1.992,1.986,1.98,1.98,1.975,1.969,1.958,1.952,1.947,1.947,1.941,1.941,1.941,1.941,1.941,1.941,1.941,1.941,1.936,1.93,1.925,1.92,1.914,1.909,1.904,1.898,1.893,1.883,1.878,1.872,1.867,1.862,1.857,1.852,1.847,1.842,1.842,1.837,1.837,1.833,1.833,1.828,1.823,1.818,0,0,0,0,0,0,0,0,0,0,0,0,0,0,0,0,0,0,0,0,1.221,1.216,1.212,1.208,1.203,1.199,1.197,1.193,1.189,1.187,1.183,1.179,1.177,1.175,1.171,1.171,1.169,1.167,1.165,1.165
2.633,2.633,2.633,2.633,2.633,2.633,2.633,2.633,2.633,2.633,2.633,2.633,2.633,2.623,2.623,2.623,2.623,2.613,2.613,2.613,2.613,2.613,2.603,2.603,2.603,2.603,2.603,2.603,2.613,2.613,2.613,2.623,2.623,2.633,2.633,2.633,2.633,2.643,2.643,2.643,2.633,2.633,2.633,2.633,2.633,2.623,2.623,2.623,2.623,2.613,2.613,2.623,2.623,2.623,2.623,2.623,2.633,2.633,2.643,2.643,2.643,2.643,2.643,2.653,2.653,2.653,2.653,2.653,2.643,2.643,2.643,2.643,2.643,2.643,2.643,2.633,2.633,2.633,2.633,2.633,2.633,2.633,2.633,2.633,2.643,2.643,2.643,2.643,2.633,2.633,2.633,2.623,2.623,2.613,2.613,2.623,2.623,2.633,2.633,2.633,2.643,2.643,2.643,2.643,2.643,2.643,2.643,2.643,2.653,2.653,2.653,2.643,2.643,2.643,2.643,2.643,2.643,2.643,2.643,2.643,2.643,2.643,2.643,2.643,2.643,2.643,2.633,2.633,2.633,2.633,2.633,2.633,2.633,2.633,2.633,2.633,2.643,2.643,2.643,2.653,2.643,2.643,2.643,2.643,2.643,2.643,2.643,2.643,2.643,2.643,2.643,2.643,2.643,2.643,2.643,2.653,2.643,2.643,2.643,2.653,2.653,2.643,2.643,2.643,2.643,2.643,2.643,2.643,2.643,2.643,2.643,2.643,2.643,2.643,2.643,2.643,2.643,2.643,2.643,2.643,2.653,2.653,2.653,2.653,2.653,2.653,2.653,2.653,2.653,2.653,2.653,2.653,2.653,2.653,2.653,2.653,2.664,2.664,2.664,2.664,2.664,2.674,2.674,2.674,2.674,2.674,2.674,2.674,2.674,2.674,2.674,2.674,2.674,2.674,2.674,2.674,2.674,2.674,2.674,2.664,2.664,2.664,2.664,2.664,2.664,2.664,2.664,2.674,2.674,2.674,2.674,2.674,2.674,2.684,2.684,2.684,2.695,2.695,2.695,2.695,2.684,2.684,2.684,2.684,2.684,2.674,2.664,2.633,2.593,2.555,2.517,2.472,2.428,2.386,2.345,2.314,2.298,2.283,2.275,2.261,2.261,2.246,2.238,2.238,2.231,2.224,2.224,2.217,2.21,2.21,2.21,2.203,2.203,2.203,2.21,2.224,2.231,2.253,2.283,2.322,2.361,2.42,2.472,2.526,2.564,2.603,2.633,2.664,2.674,2.674,2.674,2.674,2.674,2.674,2.517,0,0,0,2.027,1.941,1.936,1.93,1.925,1.914,1.909,1.898,1.893,1.888,1.872,1.862,1.857,1.852,1.847,1.842,1.837,1.833,1.828,1.833,1.833,1.833,1.833,1.828,1.823,1.818,1.813,1.808,1.799,1.794,1.79,1.78,1.78,1.776,1.771,1.771,1.767,1.767,1.767,1.767,1.762,1.762,1.762,1.762,1.758,1.753,1.749,1.744,1.735,1.731,1.727,1.722,1.714,1.709,1.709,1.705,1.705,1.701,1.701,1.697,1.697,0,2.613,2.613,2.613,2.623,2.623,2.623,2.623,2.633,2.633,2.643,2.643,2.653,2.653,2.664,2.664,2.664,2.674,2.674,2.684,2.684,2.695,2.695,2.695,2.695,2.705,2.705,2.705,2.705,2.695,2.695,2.705,2.695,2.695,2.684,2.684,2.684,2.684,2.684,2.684,2.674,2.674,2.664,2.653,2.643,2.633,2.613,2.603,2.593,2.583,2.574,2.564,2.555,2.555,2.545,2.545,2.545,2.536,2.526,2.517,2.517,2.517,2.517,2.526,2.526,2.545,2.564,2.583,2.603,2.623,2.643,2.653,2.664,2.684,2.695,2.716,2.727,2.749,2.771,2.782,2.805,2.816,2.816,2.828,2.828,2.816,2.816,2.816,2.816,2.816,2.816,2.816,2.816,2.805,2.793,2.793,2.771,2.749,2.695,2.653,2.593,2.508,2.437,2.337,2.231,2.161,0,2.064,2.039,2.021,2.009,2.003,2.003,1.998,1.992,1.986,1.98,1.98,1.975,1.969,1.963,1.952,1.947,1.947,1.947,1.941,1.941,1.936,1.941,1.941,1.941,1.936,1.93,1.925,1.92,1.914,1.904,1.898,1.893,1.888,1.888,1.883,1.878,1.872,1.867,1.862,1.857,1.857,1.852,1.847,1.842,1.842,1.837,1.837,1.837,1.828,1.823,1.818,1.813,1.813,1.808,1.804,0,0,0,0,0,0,1.794,0,1.785,1.78,1.78,1.78,1.776,0,0,0,0,0,0,1.208,1.206,1.199,1.197,1.193,1.191,1.187,1.183,1.181,1.177,1.175,1.171,1.169,1.169,1.167,1.165,1.163
2.633,2.633,2.633,2.633,2.633,2.633,2.633,2.633,2.633,2.633,2.633,2.633,2.633,2.623,2.623,2.623,2.623,2.613,2.613,2.613,2.613,2.603,2.603,2.603,2.603,2.603,2.603,2.613,2.613,2.613,2.613,2.623,2.623,2.633,2.633,2.633,2.633,2.643,2.643,2.643,2.633,2.633,2.633,2.633,2.633,2.633,2.623,2.623,2.623,2.623,2.623,2.623,2.623,2.623,2.623,2.633,2.633,2.643,2.643,2.643,2.643,2.653,2.653,2.653,2.653,2.653,2.653,2.643,2.643,2.643,2.643,2.643,2.633,2.633,2.633,2.633,2.633,2.633,2.633,2.633,2.643,2.643,2.643,2.643,2.643,2.643,2.643,2.643,2.633,2.633,2.623,2.623,2.623,2.623,2.623,2.623,2.623,2.633,2.633,2.633,2.643,2.643,2.643,2.643,2.643,2.643,2.643,2.643,2.643,2.643,2.643,2.643,2.643,2.643,2.643,2.643,2.643,2.643,2.643,2.643,2.643,2.643,2.643,2.643,2.643,2.643,2.643,2.633,2.633,2.633,2.633,2.633,2.633,2.623,2.633,2.633,2.633,2.643,2.643,2.643,2.643,2.643,2.643,2.643,2.643,2.643,2.643,2.643,2.643,2.643,2.643,2.643,2.643,2.643,2.643,2.643,2.643,2.643,2.643,2.643,2.643,2.643,2.643,2.643,2.643,2.643,2.643,2.643,2.643,2.643,2.643,2.643,2.643,2.643,2.643,2.643,2.653,2.653,2.653,2.653,2.653,2.653,2.653,2.653,2.653,2.643,2.643,2.643,2.653,2.653,2.653,2.653,2.653,2.653,2.653,2.653,2.664,2.664,2.664,2.664,2.664,2.674,2.674,2.674,2.674,2.674,2.674,2.674,2.674,2.674,2.674,2.674,2.674,2.674,2.674,2.674,2.674,2.674,2.664,2.664,2.664,2.664,2.664,2.664,2.664,2.664,2.674,2.674,2.674,2.674,2.674,2.674,2.684,2.684,2.684,2.684,2.695,2.695,2.695,2.695,2.695,2.684,2.684,2.684,2.684,2.674,2.664,2.643,2.603,2.564,2.517,2.472,2.428,2.386,2.337,2.306,2.283,2.268,2.253,2.238,2.238,2.224,2.217,2.21,2.21,2.203,2.196,2.196,2.189,2.189,2.189,2.189,2.182,2.182,2.189,2.196,2.21,2.224,2.253,2.283,2.329,2.378,2.437,2.49,2.536,2.583,2.623,2.653,2.674,2.674,2.674,2.684,2.674,2.664,2.508,0,0,0,2.033,1.941,1.936,1.925,1.92,1.909,1.898,1.893,1.888,1.883,1.867,1.862,1.852,1.847,1.842,1.837,1.833,1.828,1.823,1.823,1.828,1.828,1.823,1.823,1.818,1.813,1.808,1.799,1.794,1.79,1.785,1.78,1.776,1.771,1.771,1.767,1.767,1.767,1.767,1.762,1.762,1.758,1.758,1.758,1.753,1.749,1.744,1.74,1.735,1.727,1.722,1.718,1.714,1.714,1.709,1.709,1.705,1.705,1.697,1.693,1.693,1.693,0,2.613,2.613,2.613,2.613,2.613,2.613,2.613,2.623,2.623,2.623,2.633,2.633,2.643,2.643,2.653,2.653,2.664,2.674,2.684,2.684,2.684,2.684,2.695,2.695,2.705,2.695,2.695,2.695,2.695,2.695,2.684,2.684,2.684,2.674,2.674,2.674,2.674,2.664,2.664,2.664,2.653,2.643,2.633,2.623,2.613,2.603,2.593,2.583,2.574,2.564,2.564,2.555,2.555,2.545,2.545,2.536,2.526,2.517,2.508,2.508,2.499,2.508,2.508,2.517,2.536,2.545,2.564,2.583,2.603,2.613,2.623,2.643,2.653,2.664,2.684,2.705,2.727,2.738,2.76,2.782,2.793,2.805,2.805,2.805,2.805,2.816,2.816,2.816,2.828,2.828,2.828,2.828,2.816,2.805,2.793,2.771,2.738,2.674,2.623,0,0,0,0,0,0,2.07,2.045,2.027,2.015,2.003,1.998,1.992,1.992,1.986,1.986,1.98,1.98,1.975,1.963,1.958,1.952,1.947,1.947,1.941,1.941,1.936,1.936,1.936,1.936,1.93,1.925,1.92,1.914,1.904,1.898,1.893,1.888,1.883,1.883,1.878,1.878,1.872,1.867,1.867,1.862,1.857,1.857,1.852,1.847,1.842,1.842,1.837,1.833,1.828,1.823,1.818,1.813,1.808,1.804,1.799,1.799,1.794,1.794,1.794,1.794,1.794,1.794,1.79,1.785,1.785,1.785,1.785,1.785,1.78,1.776,0,0,0,0,0,0,1.201,1.197,1.193,1.191,1.187,1.183,1.179,1.177,1.175,1.173,1.171,1.169,1.165,1.165,1.163
2.633,2.633,2.633,2.633,2.643,2.643,2.633,2.633,2.633,2.633,2.633,2.633,2.633,2.623,2.623,2.623,2.623,2.613,2.613,2.613,2.613,2.613,2.603,2.603,2.603,2.603,2.603,2.613,2.613,2.613,2.623,2.623,2.633,2.633,2.633,2.633,2.643,2.643,2.643,2.643,2.643,2.643,2.633,2.633,2.633,2.633,2.623,2.623,2.623,2.623,2.623,2.623,2.623,2.623,2.633,2.633,2.633,2.643,2.643,2.643,2.653,2.653,2.653,2.653,2.653,2.653,2.653,2.653,2.643,2.643,2.643,2.633,2.633,2.633,2.633,2.633,2.633,2.633,2.633,2.633,2.643,2.643,2.643,2.643,2.643,2.653,2.643,2.643,2.643,2.633,2.633,2.633,2.623,2.623,2.623,2.623,2.633,2.633,2.633,2.633,2.633,2.633,2.633,2.633,2.643,2.643,2.643,2.643,2.643,2.643,2.643,2.653,2.643,2.643,2.643,2.643,2.643,2.643,2.643,2.643,2.643,2.643,2.643,2.643,2.643,2.643,2.643,2.643,2.633,2.633,2.633,2.633,2.633,2.623,2.633,2.633,2.633,2.633,2.633,2.643,2.643,2.643,2.643,2.643,2.643,2.643,2.643,2.643,2.643,2.643,2.643,2.643,2.643,2.643,2.643,2.643,2.643,2.643,2.643,2.643,2.643,2.643,2.643,2.643,2.643,2.643,2.643,2.643,2.643,2.643,2.643,2.643,2.643,2.653,2.653,2.653,2.653,2.653,2.653,2.653,2.653,2.653,2.653,2.653,2.653,2.653,2.653,2.653,2.653,2.653,2.653,2.653,2.664,2.653,2.653,2.653,2.664,2.664,2.664,2.664,2.664,2.674,2.674,2.674,2.674,2.674,2.674,2.674,2.674,2.674,2.674,2.674,2.674,2.674,2.674,2.674,2.674,2.674,2.674,2.674,2.674,2.674,2.674,2.664,2.674,2.674,2.674,2.674,2.674,2.674,2.674,2.684,2.684,2.695,2.695,2.695,2.695,2.695,2.695,2.695,2.695,2.695,2.684,2.684,2.684,2.684,2.674,2.643,2.613,2.574,2.526,2.481,2.437,2.386,2.337,2.298,2.268,2.246,2.231,2.224,2.217,2.203,2.196,2.189,2.189,2.182,2.175,2.175,2.168,2.168,2.168,2.168,2.168,2.168,2.168,2.175,2.189,2.196,2.217,2.246,2.291,2.337,2.394,2.454,2.508,2.564,2.613,2.653,2.674,2.684,2.684,2.684,2.684,2.664,2.508,0,0,0,2.021,1.936,1.93,1.92,1.909,1.904,1.893,1.888,1.883,1.878,1.862,1.857,1.847,1.842,1.837,1.833,1.828,1.823,1.818,1.818,1.818,1.818,1.818,1.813,1.808,1.808,1.804,1.794,1.794,1.79,1.78,1.78,1.776,1.771,1.771,1.767,1.767,1.767,1.762,1.762,1.758,1.753,1.753,1.753,1.749,1.744,1.74,1.735,1.731,1.727,1.722,1.718,1.714,1.709,1.709,1.705,1.705,1.697,1.697,1.693,1.688,1.688,0,2.623,2.613,2.603,2.603,2.603,2.603,2.603,2.593,2.593,2.593,2.603,2.613,2.613,2.623,2.633,2.643,2.653,2.674,2.674,2.684,2.684,2.684,2.684,2.695,2.695,2.684,2.684,2.684,2.684,2.684,2.684,2.684,2.674,2.674,2.674,2.664,2.664,2.664,2.653,2.653,2.643,2.633,2.633,2.623,2.613,2.603,2.593,2.583,2.574,2.564,2.555,2.555,2.545,2.545,2.536,2.526,2.517,2.508,2.499,2.499,2.49,2.49,2.49,2.49,2.508,2.517,2.526,2.545,2.564,2.574,2.583,2.593,2.603,2.613,2.643,2.664,2.674,2.695,2.716,2.749,2.76,2.771,2.782,2.793,2.793,2.805,2.816,2.816,2.828,2.828,2.84,2.84,2.828,2.828,2.816,2.782,2.749,2.705,2.643,2.564,2.499,0,0,2.175,0,2.076,2.051,2.033,2.015,2.003,1.998,1.992,1.986,1.986,1.98,1.98,1.98,1.975,1.963,1.958,1.952,1.947,1.947,1.941,1.936,1.936,1.93,1.925,1.925,1.92,1.914,1.909,1.904,1.898,1.893,1.888,1.883,1.883,1.878,1.878,1.872,1.867,1.867,1.862,1.862,1.857,1.857,1.857,1.852,1.847,1.847,1.842,1.837,1.828,1.823,1.818,1.813,1.808,1.804,1.799,1.794,1.79,1.79,1.794,1.794,1.794,1.794,1.79,1.79,1.785,1.785,1.785,1.785,1.78,1.78,1.78,0,0,0,0,0,0,0,1.195,1.191,1.191,1.185,1.181,1.177,1.175,1.173,1.171,1.169,1.167,1.163,1.163
2.633,2.633,2.633,2.633,2.633,2.643,2.633,2.633,2.633,2.633,2.633,2.633,2.633,2.623,2.623,2.623,2.623,2.613,2.613,2.613,2.613,2.613,2.613,2.603,2.613,2.613,2.613,2.613,2.613,2.613,2.623,2.623,2.633,2.633,2.633,2.633,2.643,2.643,2.653,2.653,2.643,2.643,2.643,2.643,2.633,2.633,2.633,2.623,2.623,2.623,2.623,2.623,2.623,2.623,2.633,2.633,2.643,2.643,2.643,2.653,2.653,2.653,2.653,2.653,2.653,2.653,2.653,2.653,2.643,2.643,2.643,2.633,2.633,2.633,2.633,2.633,2.633,2.633,2.633,2.633,2.643,2.643,2.643,2.643,2.653,2.653,2.653,2.653,2.643,2.643,2.643,2.633,2.633,2.633,2.633,2.633,2.633,2.633,2.633,2.633,2.633,2.633,2.633,2.633,2.633,2.633,2.633,2.643,2.643,2.643,2.643,2.653,2.643,2.653,2.643,2.643,2.643,2.643,2.643,2.643,2.643,2.643,2.643,2.643,2.643,2.643,2.643,2.643,2.643,2.633,2.633,2.633,2.633,2.623,2.623,2.623,2.633,2.633,2.633,2.643,2.643,2.643,2.643,2.643,2.643,2.643,2.643,2.643,2.643,2.643,2.643,2.643,2.643,2.643,2.643,2.643,2.643,2.643,2.643,2.643,2.643,2.643,2.643,2.643,2.643,2.643,2.643,2.643,2.643,2.643,2.643,2.653,2.653,2.653,2.653,2.653,2.653,2.653,2.653,2.653,2.653,2.653,2.653,2.653,2.653,2.653,2.643,2.653,2.653,2.653,2.653,2.653,2.653,2.653,2.653,2.653,2.664,2.664,2.664,2.664,2.664,2.664,2.664,2.674,2.674,2.674,2.674,2.674,2.674,2.674,2.674,2.674,2.674,2.674,2.674,2.674,2.664,2.674,2.674,2.674,2.674,2.674,2.674,2.674,2.674,2.674,2.674,2.674,2.674,2.674,2.684,2.684,2.695,2.695,2.695,2.695,2.695,2.695,2.705,2.695,2.695,2.695,2.684,2.695,2.695,2.684,2.674,2.653,2.623,2.583,2.536,2.481,2.437,2.378,2.329,2.291,2.253,2.231,2.217,2.203,2.196,2.182,2.175,2.168,2.168,2.161,2.154,2.154,2.147,2.147,2.147,2.147,2.147,2.147,2.147,2.161,2.161,2.175,2.196,2.217,2.253,2.306,2.361,2.42,2.481,2.545,2.593,2.633,2.674,2.684,2.684,2.684,2.684,2.664,2.508,0,0,0,2.015,1.925,1.92,1.909,1.904,1.893,1.883,1.878,1.872,1.867,1.857,1.847,1.842,1.837,1.833,1.828,1.823,1.818,1.813,1.813,1.808,1.808,1.808,1.808,1.804,1.799,1.794,1.794,1.79,1.785,1.78,1.776,1.771,1.771,1.767,1.767,1.762,1.762,1.758,1.758,1.753,1.749,1.749,1.749,1.744,1.74,1.735,1.731,1.727,1.722,1.718,1.718,1.714,1.709,1.705,1.705,1.701,1.697,1.693,1.688,1.688,1.684,1.684,0,0,2.603,2.603,2.593,2.593,2.574,2.574,2.564,2.574,2.574,2.583,2.593,2.603,2.623,2.623,2.643,2.664,2.664,2.674,2.674,2.684,2.684,2.684,2.684,2.684,2.684,2.684,2.684,2.684,2.674,2.674,2.674,2.664,2.664,2.664,2.653,2.653,2.643,2.643,2.643,2.633,2.633,2.623,2.613,2.603,2.593,2.593,2.583,2.574,2.564,2.555,2.555,2.545,2.545,2.536,2.526,2.517,2.499,2.49,2.49,2.481,2.481,2.481,2.481,2.49,2.49,2.508,2.517,2.526,2.536,2.555,2.564,2.574,2.593,2.623,2.633,2.653,2.664,2.695,2.716,2.727,2.749,2.76,2.771,2.782,2.793,2.816,2.816,2.828,2.84,2.851,2.84,2.84,2.828,2.805,2.771,2.716,2.664,0,2.517,2.403,2.283,2.196,2.134,2.089,2.057,2.033,2.021,2.009,2.003,1.992,1.986,1.986,1.986,1.98,1.98,1.975,1.969,1.958,1.958,1.952,1.947,1.941,1.936,1.93,1.925,1.925,1.92,1.914,1.909,1.904,1.898,1.893,1.888,1.888,1.883,1.878,1.878,1.872,1.872,1.867,1.862,1.862,1.862,1.857,1.857,1.862,1.857,1.857,1.852,1.847,1.842,1.833,1.828,1.818,1.813,1.808,1.799,1.794,1.794,1.794,1.79,1.794,1.794,1.794,1.794,1.794,1.79,1.785,1.785,1.79,1.785,1.785,1.78,1.785,1.785,1.79,0,0,0,0,0,0,1.193,1.193,0,0,1.183,1.179,1.177,1.175,1.173,1.169,1.167,1.163
2.623,2.623,2.633,2.633,2.633,2.633,2.633,2.633,2.633,2.633,2.633,2.633,2.633,2.623,2.623,2.623,2.623,2.623,2.613,2.613,2.613,2.613,2.613,2.613,2.613,2.613,2.613,2.613,2.613,2.613,2.623,2.623,2.633,2.633,2.633,2.633,2.643,2.643,2.643,2.643,2.643,2.643,2.643,2.643,2.633,2.633,2.633,2.633,2.623,2.623,2.623,2.623,2.623,2.633,2.633,2.633,2.643,2.643,2.643,2.653,2.653,2.653,2.653,2.653,2.653,2.653,2.653,2.653,2.653,2.643,2.643,2.643,2.633,2.633,2.633,2.633,2.633,2.633,2.633,2.633,2.643,2.643,2.643,2.653,2.653,2.653,2.653,2.653,2.653,2.653,2.643,2.643,2.643,2.633,2.633,2.633,2.633,2.633,2.633,2.633,2.633,2.633,2.623,2.623,2.623,2.633,2.633,2.633,2.633,2.643,2.643,2.653,2.653,2.653,2.653,2.643,2.643,2.643,2.643,2.643,2.643,2.643,2.643,2.643,2.643,2.643,2.643,2.643,2.643,2.643,2.633,2.633,2.633,2.623,2.623,2.623,2.623,2.623,2.633,2.633,2.643,2.643,2.643,2.643,2.643,2.643,2.643,2.643,2.643,2.643,2.643,2.643,2.643,2.643,2.643,2.643,2.633,2.633,2.633,2.633,2.633,2.643,2.643,2.643,2.633,2.633,2.643,2.643,2.643,2.653,2.653,2.653,2.653,2.653,2.653,2.664,2.664,2.664,2.664,2.653,2.653,2.653,2.643,2.643,2.653,2.653,2.643,2.643,2.643,2.643,2.653,2.653,2.653,2.653,2.653,2.653,2.653,2.653,2.664,2.664,2.664,2.664,2.664,2.664,2.664,2.674,2.674,2.674,2.674,2.674,2.674,2.674,2.674,2.674,2.674,2.664,2.664,2.664,2.664,2.664,2.664,2.674,2.674,2.674,2.674,2.674,2.674,2.674,2.674,2.684,2.684,2.684,2.695,2.695,2.695,2.695,2.695,2.695,2.705,2.695,2.695,2.695,2.695,2.695,2.695,2.684,2.684,2.664,2.623,2.593,2.545,2.499,2.437,2.386,2.329,2.275,2.246,2.217,2.203,2.189,2.175,2.161,2.154,2.147,2.147,2.141,2.134,2.128,2.128,2.128,2.128,2.128,2.128,2.128,2.134,2.134,2.141,2.154,2.161,2.189,2.217,2.261,2.322,2.378,2.446,2.508,2.574,2.623,2.664,2.684,2.684,2.695,2.684,2.674,2.517,0,0,2.114,2.009,1.914,1.909,1.904,1.893,1.883,1.872,1.867,1.862,1.857,1.847,1.837,1.833,1.828,1.823,1.818,1.813,1.808,1.804,1.804,1.804,1.799,1.799,1.799,1.794,1.794,1.794,1.79,1.785,1.78,1.78,1.776,1.771,1.767,1.767,1.762,1.762,1.758,1.753,1.753,1.749,1.749,1.744,1.744,1.74,1.735,1.731,1.727,1.727,1.722,1.718,1.714,1.709,1.705,1.701,1.701,1.697,1.693,1.688,1.684,1.684,1.68,1.68,1.676,0,2.574,2.564,2.564,2.555,2.536,2.526,2.526,2.526,2.536,2.555,2.564,2.583,2.603,2.623,2.633,2.653,2.664,2.674,2.674,2.684,2.684,2.684,2.684,2.684,2.684,2.684,2.674,2.674,2.674,2.674,2.664,2.664,2.653,2.653,2.653,2.643,2.643,2.643,2.643,2.633,2.633,2.623,2.623,2.613,2.603,2.593,2.593,2.583,2.574,2.564,2.564,2.555,2.555,2.545,2.526,2.517,2.508,2.499,2.49,2.49,2.472,2.472,2.472,2.472,2.472,2.472,2.49,2.499,2.499,2.517,2.517,2.526,2.555,2.574,2.583,2.603,2.613,2.643,2.664,2.684,2.705,2.727,2.738,2.76,2.782,2.805,2.816,2.828,2.828,2.851,2.851,2.851,2.84,2.828,2.793,2.749,2.695,2.623,2.545,2.42,2.306,2.217,2.154,2.102,2.07,2.039,2.027,2.015,2.003,1.992,1.992,1.986,1.986,1.98,1.98,1.975,1.969,1.963,1.958,1.952,1.947,1.941,1.936,1.93,1.925,1.92,1.92,1.914,1.909,1.904,1.898,1.893,1.888,1.883,1.878,1.878,1.872,1.872,1.872,1.867,1.862,1.862,1.862,1.862,1.862,1.862,1.862,1.857,1.857,1.852,1.842,1.837,1.828,1.818,1.808,1.804,1.799,1.794,1.794,1.79,1.794,1.794,1.794,1.794,1.794,1.79,1.79,1.785,1.79,1.79,1.785,1.785,1.785,1.785,1.785,1.79,0,0,0,0,0,0,0,0,0,0,0,0,1.191,1.187,1.181,1.177,1.169,1.165
2.623,2.623,2.623,2.623,2.633,2.633,2.633,2.633,2.633,2.633,2.633,2.633,2.623,2.623,2.623,2.623,2.623,2.623,2.623,2.613,2.613,2.613,2.613,2.613,2.613,2.613,2.613,2.613,2.623,2.623,2.623,2.623,2.633,2.633,2.633,2.633,2.643,2.643,2.643,2.643,2.643,2.643,2.643,2.643,2.633,2.633,2.633,2.633,2.623,2.623,2.623,2.623,2.633,2.633,2.633,2.633,2.643,2.643,2.643,2.653,2.653,2.653,2.653,2.653,2.653,2.653,2.653,2.653,2.653,2.653,2.643,2.643,2.643,2.633,2.633,2.633,2.633,2.633,2.633,2.633,2.643,2.643,2.643,2.653,2.653,2.653,2.653,2.653,2.653,2.653,2.653,2.653,2.653,2.643,2.643,2.643,2.643,2.633,2.633,2.633,2.633,2.623,2.623,2.623,2.623,2.623,2.633,2.633,2.633,2.643,2.643,2.643,2.653,2.653,2.653,2.643,2.643,2.643,2.643,2.643,2.643,2.643,2.643,2.643,2.643,2.643,2.643,2.643,2.643,2.643,2.633,2.633,2.633,2.623,2.623,2.623,2.623,2.623,2.633,2.633,2.633,2.633,2.643,2.643,2.643,2.643,2.643,2.643,2.643,2.643,2.643,2.643,2.643,2.643,2.633,2.633,2.633,2.633,2.633,2.633,2.633,2.643,2.643,2.643,2.633,2.633,2.643,2.643,2.653,2.653,2.653,2.653,2.653,2.664,2.664,2.664,2.664,2.664,2.664,2.653,2.653,2.643,2.643,2.643,2.653,2.643,2.643,2.643,2.643,2.643,2.643,2.643,2.653,2.653,2.653,2.653,2.653,2.653,2.664,2.664,2.664,2.664,2.664,2.664,2.664,2.674,2.674,2.674,2.674,2.674,2.674,2.664,2.664,2.664,2.664,2.664,2.664,2.664,2.664,2.664,2.664,2.674,2.674,2.674,2.674,2.674,2.674,2.674,2.674,2.684,2.684,2.684,2.695,2.695,2.695,2.695,2.695,2.695,2.705,2.695,2.695,2.695,2.695,2.695,2.695,2.695,2.684,2.664,2.643,2.603,2.555,2.499,2.454,2.394,2.329,2.283,2.238,2.21,2.189,2.168,2.154,2.141,2.134,2.128,2.121,2.121,2.114,2.108,2.108,2.108,2.108,2.108,2.108,2.114,2.114,2.114,2.121,2.128,2.141,2.154,2.175,2.217,2.275,2.329,2.394,2.463,2.526,2.593,2.643,2.674,2.695,2.695,2.695,2.653,2.49,0,2.203,2.082,1.986,1.904,1.898,1.888,1.878,1.872,1.862,1.857,1.852,1.847,1.837,1.828,1.823,1.818,1.813,1.808,1.804,1.799,1.794,1.794,1.794,1.794,1.794,1.79,1.79,1.785,1.785,1.78,1.78,1.776,1.776,1.771,1.767,1.767,1.762,1.762,1.758,1.753,1.749,1.749,1.749,1.744,1.74,1.74,1.735,1.731,1.731,1.727,1.722,1.718,1.714,1.709,1.705,1.705,1.701,1.697,1.693,1.688,1.684,1.684,1.68,1.676,1.676,1.676,1.676,1.693,0,2.463,2.463,2.463,2.454,2.454,2.42,2.463,2.508,2.536,2.564,2.583,2.603,2.623,2.643,2.653,2.674,2.684,2.684,2.684,2.684,2.684,2.684,2.684,2.684,2.674,2.674,2.674,2.664,2.664,2.653,2.653,2.653,2.643,2.643,2.643,2.643,2.643,2.633,2.633,2.633,2.623,2.613,2.613,2.603,2.593,2.593,2.583,2.583,2.574,2.564,2.564,2.555,2.545,2.536,2.526,2.508,2.508,2.49,2.481,2.472,2.472,2.454,2.454,2.463,2.472,2.472,2.472,2.481,2.49,2.49,2.517,2.526,2.536,2.545,2.564,2.593,2.623,2.643,2.664,2.684,2.705,2.727,2.76,2.793,2.805,2.816,2.828,2.84,2.851,2.851,2.851,2.828,2.816,2.771,2.716,2.664,2.583,2.463,2.345,2.246,2.168,2.108,2.07,2.045,2.033,2.021,2.003,1.998,1.998,1.992,1.986,1.986,1.98,1.98,1.975,1.963,1.958,1.952,1.947,1.941,1.936,1.925,1.925,1.92,1.914,1.909,1.904,1.898,1.893,1.888,1.883,1.883,1.878,1.872,1.872,1.872,1.867,1.867,1.862,1.857,1.862,1.862,1.862,1.862,1.862,1.862,1.857,1.857,1.847,1.837,1.828,1.818,1.808,1.804,1.799,1.794,1.794,1.794,1.794,1.794,1.794,1.794,1.794,1.794,1.79,1.79,1.79,1.79,1.79,1.79,1.785,1.785,1.79,1.79,1.79,1.794,0,0,0,0,0,0,0,0,0,0,1.206,1.199,1.191,1.183,1.175,1.167
2.623,2.623,2.623,2.623,2.623,2.623,2.623,2.623,2.623,2.623,2.623,2.623,2.623,2.623,2.623,2.623,2.623,2.623,2.623,2.623,2.623,2.623,2.623,2.623,2.623,2.623,2.623,2.623,2.623,2.623,2.623,2.623,2.623,2.633,2.633,2.633,2.643,2.643,2.643,2.643,2.643,2.643,2.643,2.643,2.633,2.633,2.633,2.633,2.633,2.633,2.623,2.633,2.633,2.633,2.633,2.633,2.643,2.643,2.643,2.653,2.653,2.653,2.653,2.653,2.653,2.653,2.653,2.653,2.653,2.653,2.653,2.643,2.643,2.633,2.633,2.633,2.633,2.633,2.633,2.633,2.643,2.643,2.643,2.653,2.653,2.653,2.653,2.653,2.653,2.653,2.653,2.653,2.653,2.653,2.653,2.643,2.643,2.633,2.633,2.633,2.623,2.623,2.623,2.623,2.623,2.623,2.623,2.633,2.633,2.633,2.643,2.653,2.653,2.653,2.653,2.653,2.653,2.643,2.643,2.643,2.643,2.643,2.643,2.643,2.643,2.643,2.643,2.643,2.643,2.643,2.633,2.633,2.633,2.623,2.623,2.623,2.623,2.623,2.623,2.633,2.633,2.633,2.633,2.643,2.643,2.643,2.643,2.643,2.643,2.643,2.643,2.643,2.643,2.633,2.633,2.633,2.633,2.633,2.633,2.633,2.633,2.633,2.633,2.633,2.633,2.633,2.643,2.643,2.653,2.653,2.653,2.653,2.653,2.664,2.664,2.664,2.664,2.674,2.664,2.664,2.653,2.643,2.643,2.643,2.653,2.653,2.643,2.643,2.653,2.653,2.653,2.653,2.653,2.653,2.653,2.653,2.653,2.653,2.653,2.664,2.664,2.664,2.664,2.664,2.664,2.664,2.664,2.664,2.664,2.674,2.674,2.664,2.664,2.664,2.664,2.664,2.664,2.664,2.664,2.664,2.664,2.674,2.674,2.674,2.674,2.674,2.674,2.674,2.684,2.684,2.684,2.684,2.695,2.695,2.695,2.695,2.695,2.695,2.705,2.695,2.695,2.695,2.695,2.695,2.695,2.695,2.695,2.674,2.653,2.623,2.574,2.517,2.463,2.403,2.345,2.283,2.238,2.203,2.182,2.154,2.141,2.128,2.121,2.114,2.108,2.102,2.095,2.095,2.089,2.089,2.089,2.089,2.089,2.089,2.095,2.095,2.102,2.108,2.114,2.128,2.141,2.182,2.231,2.283,2.345,2.411,2.481,2.555,2.623,2.664,2.684,2.695,2.664,2.603,2.446,0,0,0,1.958,1.888,1.883,1.878,1.867,1.862,1.852,1.847,1.842,1.837,1.828,1.823,1.813,1.808,1.804,1.799,1.794,1.79,1.785,1.785,1.785,1.78,1.78,1.78,1.776,1.776,1.776,1.776,1.771,1.771,1.767,1.767,1.762,1.762,1.758,1.758,1.753,1.753,1.749,1.744,1.744,1.74,1.74,1.735,1.735,1.731,1.727,1.722,1.722,1.718,1.714,1.709,1.705,1.705,1.701,1.697,1.693,1.684,1.684,1.68,1.676,1.676,1.672,1.672,1.68,1.684,1.701,1.718,2.089,2.306,2.306,2.238,2.291,2.37,2.437,2.481,2.526,2.564,2.583,2.603,2.633,2.653,2.674,2.684,2.695,2.695,2.695,2.695,2.684,2.684,2.684,2.674,2.674,2.674,2.664,2.653,2.653,2.653,2.643,2.643,2.643,2.643,2.643,2.643,2.643,2.643,2.633,2.633,2.623,2.613,2.613,2.603,2.603,2.593,2.583,2.583,2.574,2.574,2.574,2.564,2.555,2.536,2.526,2.517,2.508,2.49,2.481,2.472,2.463,2.454,2.454,2.454,2.463,2.454,2.463,2.454,2.463,2.472,2.49,2.499,2.499,2.508,2.536,2.555,2.593,2.613,2.633,2.653,2.684,2.727,2.749,2.771,2.793,2.805,2.828,2.851,2.851,2.851,2.84,2.816,2.771,2.727,2.674,2.593,0,2.378,2.268,2.196,2.128,2.082,2.051,2.039,2.021,2.009,1.998,1.998,1.992,1.986,1.986,1.98,1.98,1.975,1.969,1.963,1.952,1.947,1.941,1.936,1.93,1.92,1.92,1.914,1.909,1.904,1.898,1.893,1.888,1.883,1.878,1.878,1.872,1.872,1.867,1.867,1.862,1.862,1.857,1.857,1.862,1.862,1.867,1.867,1.862,1.862,1.857,1.847,1.842,1.833,1.818,1.813,1.804,1.799,1.794,1.794,1.79,1.79,1.794,1.794,1.794,1.794,1.794,1.79,1.794,1.79,1.79,1.79,1.79,1.79,1.79,1.79,1.794,1.794,1.794,0,0,0,0,0,0,0,0,0,1.229,1.221,1.212,1.203,1.193,1.181,1.171
2.623,2.623,2.623,2.623,2.623,2.623,2.623,2.623,2.623,2.623,2.623,2.623,2.623,2.623,2.623,2.623,2.623,2.623,2.623,2.623,2.623,2.623,2.623,2.623,2.623,2.623,2.623,2.623,2.623,2.623,2.623,2.623,2.623,2.623,2.633,2.633,2.633,2.643,2.643,2.643,2.643,2.643,2.643,2.643,2.633,2.633,2.633,2.633,2.633,2.633,2.633,2.633,2.633,2.633,2.633,2.633,2.633,2.643,2.643,2.653,2.653,2.653,2.653,2.653,2.653,2.653,2.653,2.653,2.653,2.653,2.653,2.653,2.643,2.643,2.633,2.633,2.633,2.633,2.633,2.633,2.643,2.643,2.643,2.653,2.653,2.653,2.653,2.653,2.653,2.653,2.653,2.653,2.653,2.653,2.653,2.653,2.643,2.643,2.633,2.633,2.623,2.623,2.623,2.623,2.623,2.623,2.623,2.623,2.633,2.633,2.643,2.653,2.653,2.653,2.643,2.643,2.643,2.643,2.643,2.643,2.643,2.643,2.643,2.643,2.643,2.643,2.643,2.643,2.643,2.643,2.633,2.633,2.633,2.623,2.623,2.623,2.623,2.623,2.623,2.633,2.633,2.633,2.633,2.643,2.643,2.643,2.643,2.643,2.643,2.643,2.643,2.643,2.643,2.643,2.633,2.633,2.633,2.633,2.633,2.633,2.633,2.633,2.633,2.633,2.633,2.633,2.643,2.643,2.653,2.653,2.653,2.653,2.664,2.664,2.674,2.674,2.674,2.674,2.664,2.664,2.653,2.643,2.643,2.643,2.653,2.653,2.653,2.653,2.653,2.664,2.664,2.664,2.664,2.653,2.653,2.653,2.653,2.653,2.653,2.653,2.664,2.664,2.664,2.664,2.664,2.664,2.664,2.664,2.664,2.674,2.674,2.664,2.664,2.664,2.664,2.664,2.664,2.664,2.664,2.664,2.664,2.674,2.674,2.674,2.674,2.684,2.684,2.684,2.684,2.684,2.695,2.695,2.695,2.695,2.695,2.695,2.695,2.695,2.705,2.695,2.695,2.695,2.695,2.695,2.695,2.695,2.684,2.674,2.664,2.633,2.593,2.536,2.481,0,2.345,2.291,2.238,2.196,2.168,2.141,2.128,2.108,2.102,2.095,2.089,2.082,2.082,2.076,2.07,2.07,2.076,2.076,2.076,2.076,2.076,2.076,2.076,2.082,2.089,2.102,2.108,2.141,2.182,2.231,2.283,2.353,2.428,2.499,2.564,2.623,2.643,2.633,2.593,2.517,2.361,0,0,0,1.936,1.878,1.872,1.867,1.857,1.847,1.842,1.837,1.828,1.823,1.818,1.808,1.804,1.799,1.794,1.79,1.785,1.78,1.776,1.776,1.776,1.776,1.776,1.771,1.771,1.767,1.767,1.767,1.762,1.762,1.762,1.758,1.758,1.753,1.753,1.753,1.753,1.753,1.749,1.744,1.744,1.74,1.74,1.735,1.731,1.727,1.722,1.722,1.718,1.714,1.709,1.709,1.705,1.705,1.701,1.697,1.693,1.684,1.68,1.676,1.676,1.672,1.672,1.672,1.672,1.684,1.693,1.718,1.744,1.947,2.009,2.095,2.21,2.275,2.353,2.42,2.508,2.545,2.574,2.593,2.613,2.643,2.664,2.674,2.684,2.695,2.695,2.695,2.695,2.684,2.684,2.684,2.674,2.674,2.674,2.664,2.653,2.653,2.643,2.643,2.643,2.643,2.643,2.643,2.643,2.643,2.643,2.633,2.633,2.623,2.623,2.613,2.613,2.603,2.593,2.593,2.593,2.583,2.583,2.574,2.564,2.555,2.536,2.526,2.517,2.499,2.49,2.481,2.463,2.446,2.446,2.446,2.446,2.446,2.446,2.428,2.428,2.437,2.446,2.454,2.446,2.454,2.481,2.49,2.526,2.545,2.574,2.593,2.633,2.664,2.705,2.738,2.76,2.782,2.805,2.828,2.84,2.84,2.828,2.805,2.771,2.727,2.684,2.613,2.508,0,0,2.217,2.141,2.089,2.064,2.045,2.027,2.009,2.003,1.998,1.992,1.986,1.98,1.98,1.975,1.975,1.969,1.963,1.952,1.947,1.941,1.936,1.93,1.93,1.925,1.92,1.914,1.909,1.898,1.893,1.888,1.883,1.878,1.872,1.872,1.867,1.867,1.862,1.862,1.857,1.857,1.857,1.857,1.862,1.862,1.862,1.862,1.862,1.857,1.852,1.842,1.833,1.823,1.813,1.804,1.799,1.794,1.794,1.79,1.79,1.79,1.79,1.79,1.79,1.79,1.79,1.785,1.79,1.79,1.79,1.79,1.79,1.794,1.794,1.799,1.799,1.799,1.799,0,0,0,0,0,0,0,0,1.238,1.229,1.218,1.208,1.195,1.183,1.173
2.613,2.613,2.623,2.623,2.623,2.623,2.623,2.623,2.623,2.623,2.623,2.623,2.623,2.623,2.623,2.623,2.623,2.623,2.623,2.623,2.623,2.623,2.623,2.623,2.623,2.623,2.623,2.623,2.623,2.613,2.623,2.623,2.623,2.623,2.623,2.633,2.633,2.633,2.643,2.643,2.643,2.643,2.643,2.633,2.633,2.633,2.633,2.633,2.633,2.633,2.633,2.633,2.633,2.633,2.633,2.633,2.633,2.643,2.653,2.653,2.653,2.653,2.653,2.653,2.664,2.664,2.664,2.653,2.653,2.653,2.653,2.653,2.643,2.643,2.643,2.633,2.633,2.633,2.633,2.633,2.643,2.643,2.643,2.653,2.653,2.653,2.653,2.653,2.653,2.653,2.653,2.664,2.653,2.653,2.653,2.653,2.643,2.643,2.633,2.633,2.623,2.623,2.623,2.623,2.623,2.623,2.623,2.623,2.633,2.633,2.643,2.643,2.653,2.653,2.643,2.643,2.643,2.643,2.643,2.643,2.643,2.643,2.643,2.643,2.643,2.643,2.643,2.643,2.643,2.643,2.633,2.633,2.633,2.623,2.623,2.623,2.623,2.623,2.623,2.633,2.633,2.633,2.633,2.643,2.643,2.643,2.643,2.643,2.643,2.643,2.643,2.643,2.643,2.643,2.643,2.633,2.633,2.633,2.633,2.633,2.633,2.633,2.633,2.633,2.633,2.633,2.633,2.643,2.643,2.653,2.653,2.653,2.664,2.664,2.674,2.674,2.674,2.674,2.664,2.664,2.653,2.643,2.643,2.643,2.653,2.653,2.653,2.664,2.664,2.664,2.664,2.664,2.664,2.653,2.653,2.653,2.653,2.653,2.653,2.653,2.653,2.653,2.653,2.664,2.664,2.664,2.664,2.664,2.664,2.674,2.674,2.664,2.664,2.664,2.664,2.664,2.664,2.664,2.664,2.664,2.664,2.674,2.674,2.674,2.674,2.684,2.684,2.684,2.684,2.684,2.695,2.695,2.695,2.695,2.695,2.695,2.695,2.695,2.705,2.705,2.705,2.695,2.695,2.695,2.695,2.695,2.684,2.684,2.674,2.653,2.603,2.555,2.499,0,2.361,2.298,2.246,2.196,2.168,2.134,2.114,2.102,2.089,2.082,2.076,2.07,2.064,2.057,2.051,2.051,2.051,2.051,2.051,2.051,2.051,2.057,2.057,2.057,2.064,2.07,2.082,2.108,2.147,2.182,2.231,2.291,2.353,2.411,2.472,2.508,2.526,2.508,2.454,2.378,2.246,0,0,0,1.909,1.862,1.857,1.852,1.847,1.837,1.833,1.823,1.818,1.808,1.804,1.799,1.794,1.79,1.785,1.78,1.776,1.771,1.767,1.767,1.767,1.767,1.762,1.762,1.762,1.758,1.758,1.758,1.758,1.758,1.753,1.749,1.749,1.749,1.749,1.744,1.744,1.749,1.744,1.74,1.74,1.74,1.735,1.731,1.727,1.722,1.722,1.718,1.714,1.709,1.709,1.709,1.705,1.701,1.697,1.693,1.688,1.684,1.68,1.676,1.676,1.672,1.672,1.668,1.668,1.68,1.688,1.709,1.749,1.862,0,1.992,2.082,2.175,2.268,2.345,2.472,2.526,2.555,2.583,2.603,2.633,2.653,2.674,2.684,2.695,2.695,2.695,2.695,2.695,2.684,2.684,2.684,2.674,2.674,2.664,2.653,2.653,2.643,2.643,2.643,2.643,2.643,2.643,2.643,2.643,2.643,2.643,2.633,2.633,2.623,2.623,2.613,2.613,2.613,2.603,2.603,2.603,2.593,2.583,2.574,2.564,2.555,2.545,2.526,2.508,2.499,2.481,2.463,2.446,2.437,2.437,2.437,2.428,2.428,2.42,2.411,2.42,2.42,2.42,2.411,2.411,2.42,2.437,2.463,2.481,2.499,2.536,2.564,2.613,2.643,2.695,2.716,2.749,2.782,2.816,2.828,2.84,2.828,2.816,2.782,2.749,2.705,2.633,2.536,2.437,0,2.238,2.147,2.095,2.064,2.045,2.027,2.009,2.003,1.992,1.986,1.98,1.98,1.98,1.975,1.969,1.969,1.963,1.958,1.947,1.941,1.936,1.93,1.925,1.92,1.914,1.909,1.904,1.898,1.893,1.883,1.878,1.872,1.872,1.867,1.867,1.862,1.862,1.862,1.857,1.857,1.857,1.857,1.862,1.862,1.867,1.867,1.862,1.862,1.852,1.847,1.833,1.823,1.818,1.804,1.794,1.794,1.79,1.79,1.79,1.79,1.785,1.785,1.79,1.79,1.785,1.785,1.79,1.79,1.79,1.794,1.794,1.799,1.804,1.804,1.804,1.804,1.808,0,0,0,0,0,0,0,0,1.252,1.24,1.229,1.214,1.201,1.187,1.175
2.613,2.613,2.613,2.613,2.623,2.623,2.623,2.623,2.623,2.623,2.623,2.623,2.623,2.623,2.623,2.623,2.623,2.623,2.623,2.623,2.623,2.633,2.633,2.633,2.633,2.623,2.623,2.623,2.623,2.613,2.613,2.623,2.623,2.623,2.623,2.623,2.633,2.633,2.643,2.643,2.633,2.633,2.633,2.633,2.633,2.633,2.633,2.633,2.633,2.633,2.633,2.633,2.633,2.633,2.633,2.633,2.643,2.643,2.653,2.653,2.653,2.653,2.653,2.653,2.664,2.664,2.664,2.653,2.653,2.653,2.653,2.653,2.653,2.643,2.643,2.633,2.633,2.633,2.633,2.633,2.643,2.643,2.643,2.653,2.653,2.653,2.653,2.653,2.653,2.653,2.664,2.664,2.653,2.653,2.653,2.653,2.653,2.643,2.643,2.633,2.633,2.623,2.623,2.623,2.623,2.623,2.623,2.633,2.633,2.633,2.643,2.643,2.643,2.643,2.643,2.643,2.643,2.643,2.643,2.643,2.643,2.643,2.643,2.643,2.643,2.643,2.653,2.643,2.643,2.643,2.643,2.633,2.633,2.633,2.623,2.623,2.623,2.623,2.623,2.633,2.633,2.633,2.643,2.643,2.643,2.643,2.643,2.643,2.643,2.643,2.643,2.643,2.643,2.643,2.643,2.643,2.643,2.643,2.633,2.633,2.633,2.633,2.633,2.633,2.633,2.633,2.633,2.643,2.643,2.653,2.653,2.653,2.664,2.664,2.664,2.674,2.674,2.674,2.674,2.664,2.653,2.653,2.643,2.643,2.653,2.653,2.664,2.664,2.664,2.664,2.664,2.674,2.664,2.664,2.653,2.653,2.653,2.653,2.653,2.653,2.653,2.653,2.653,2.664,2.664,2.664,2.664,2.664,2.664,2.674,2.674,2.664,2.664,2.664,2.664,2.664,2.664,2.664,2.664,2.664,2.664,2.674,2.674,2.674,2.684,2.684,2.684,2.684,2.695,2.695,2.695,2.695,2.695,2.695,2.695,2.695,2.695,2.705,2.705,2.705,2.705,2.695,2.695,2.705,2.695,2.695,2.695,2.684,2.674,2.653,2.613,2.564,2.508,2.437,2.37,2.306,2.253,2.203,2.161,2.128,2.108,2.089,2.076,2.07,2.057,2.051,2.045,2.039,2.033,2.033,2.033,2.033,2.033,2.033,2.033,2.033,2.033,2.039,2.045,2.051,2.057,2.076,2.108,2.141,2.182,2.231,0,0,2.378,2.403,2.42,2.394,2.345,0,0,0,0,1.93,1.888,1.852,1.847,1.842,1.833,1.828,1.818,1.813,1.804,1.799,1.794,1.79,1.785,1.78,1.776,1.771,1.767,1.762,1.762,1.758,1.758,1.758,1.753,1.753,1.753,1.753,1.753,1.749,1.749,1.749,1.744,1.744,1.74,1.74,1.74,1.74,1.74,1.74,1.74,1.735,1.735,1.735,1.731,1.727,1.722,1.718,1.718,1.714,1.709,1.709,1.709,1.705,1.701,1.701,1.697,1.693,1.688,1.684,1.68,1.676,1.676,1.672,1.672,1.668,1.668,1.676,1.684,1.701,1.731,1.785,1.828,1.893,1.986,0,0,2.275,2.411,2.508,2.536,2.555,2.583,2.613,2.643,2.664,2.674,2.684,2.695,2.695,2.695,2.695,2.695,2.695,2.684,2.684,2.674,2.664,2.664,2.653,2.643,2.643,2.643,2.643,2.643,2.643,2.643,2.643,2.653,2.653,2.653,2.643,2.643,2.633,2.633,2.623,2.623,2.623,2.613,2.613,2.603,2.603,2.583,2.574,2.555,2.545,2.526,2.517,2.499,2.481,2.463,2.446,2.437,2.437,2.428,2.428,2.42,2.411,2.403,2.394,2.394,2.386,2.378,2.378,2.386,2.394,2.411,2.428,2.446,2.472,2.508,2.564,2.603,2.643,2.684,2.716,2.76,2.793,2.816,2.828,2.828,2.828,2.793,2.782,2.738,2.674,2.574,0,0,0,2.168,2.108,2.07,2.051,2.027,2.015,2.003,1.992,1.992,1.986,1.98,1.98,1.975,1.969,1.963,1.963,1.958,1.947,1.941,1.936,1.93,1.925,1.92,1.914,1.909,1.904,1.898,1.893,1.883,1.878,1.872,1.867,1.867,1.867,1.862,1.862,1.862,1.857,1.857,1.857,1.857,1.862,1.867,1.867,1.867,1.867,1.862,1.852,1.847,1.833,1.828,1.813,1.804,1.794,1.79,1.79,1.79,1.785,1.78,1.785,1.785,1.785,1.785,1.785,1.785,1.785,1.79,1.79,1.794,1.799,1.804,1.804,1.813,1.813,1.813,1.813,1.818,1.818,0,0,0,0,0,0,0,1.252,1.238,1.225,0,1.191,1.179
2.613,2.613,2.613,2.613,2.613,2.623,2.623,2.623,2.623,2.623,2.623,2.623,2.623,2.623,2.623,2.623,2.623,2.623,2.623,2.633,2.633,2.633,2.633,2.633,2.633,2.633,2.623,2.623,2.623,2.613,2.613,2.623,2.623,2.623,2.623,2.623,2.633,2.633,2.633,2.633,2.633,2.633,2.633,2.633,2.633,2.633,2.633,2.633,2.633,2.633,2.633,2.633,2.633,2.633,2.633,2.633,2.643,2.643,2.643,2.653,2.653,2.653,2.653,2.664,2.664,2.664,2.664,2.664,2.653,2.653,2.653,2.653,2.653,2.643,2.643,2.643,2.643,2.633,2.643,2.643,2.643,2.643,2.643,2.643,2.653,2.653,2.653,2.653,2.653,2.653,2.664,2.664,2.664,2.664,2.664,2.653,2.653,2.643,2.643,2.643,2.633,2.633,2.623,2.623,2.623,2.623,2.633,2.633,2.633,2.643,2.643,2.643,2.643,2.643,2.643,2.643,2.643,2.643,2.643,2.643,2.643,2.643,2.643,2.643,2.643,2.643,2.653,2.643,2.643,2.643,2.643,2.633,2.633,2.633,2.633,2.623,2.623,2.633,2.633,2.633,2.643,2.643,2.643,2.643,2.643,2.643,2.643,2.643,2.643,2.643,2.643,2.643,2.643,2.643,2.643,2.643,2.643,2.643,2.643,2.633,2.633,2.633,2.633,2.633,2.633,2.633,2.633,2.643,2.643,2.653,2.653,2.664,2.664,2.664,2.664,2.664,2.664,2.674,2.674,2.664,2.653,2.653,2.643,2.643,2.653,2.653,2.664,2.664,2.664,2.664,2.664,2.674,2.664,2.664,2.653,2.653,2.653,2.653,2.653,2.653,2.653,2.653,2.653,2.653,2.664,2.664,2.664,2.664,2.664,2.674,2.674,2.674,2.674,2.664,2.664,2.674,2.674,2.664,2.664,2.664,2.664,2.674,2.674,2.674,2.684,2.684,2.684,2.684,2.695,2.695,2.695,2.705,2.705,2.705,2.695,2.705,2.705,2.705,2.705,2.705,2.705,2.705,2.705,2.705,2.695,2.695,2.695,2.684,2.674,2.664,2.623,2.574,2.517,2.446,2.378,2.314,2.261,2.203,2.161,2.128,2.102,2.082,2.07,2.057,2.045,2.039,2.033,2.021,2.021,2.015,2.015,2.015,2.015,2.015,2.015,2.015,2.021,2.015,2.021,2.027,2.039,2.051,2.076,2.095,2.128,2.168,2.21,0,0,2.298,2.314,2.275,0,0,0,0,1.947,1.904,1.867,1.833,1.828,1.828,1.823,1.813,1.808,1.804,1.794,1.79,1.785,1.776,1.776,1.771,1.767,1.762,1.758,1.753,1.749,1.749,1.749,1.749,1.744,1.744,1.74,1.74,1.74,1.74,1.74,1.74,1.735,1.735,1.735,1.731,1.731,1.731,1.731,1.735,1.731,1.731,1.731,1.727,1.727,1.722,1.718,1.714,1.709,1.709,1.705,1.705,1.705,1.701,1.701,1.701,1.697,1.697,1.688,1.684,1.68,1.676,1.672,1.672,1.672,1.668,1.664,1.672,1.676,1.688,1.709,1.727,1.758,1.808,1.893,0,0,2.21,2.37,2.499,2.517,2.536,2.574,2.603,2.623,2.653,2.664,2.674,2.684,2.684,2.695,2.695,2.695,2.695,2.684,2.684,2.674,2.664,2.664,2.664,2.653,2.643,2.643,2.643,2.643,2.643,2.653,2.653,2.653,2.653,2.653,2.643,2.643,2.643,2.633,2.633,2.633,2.623,2.623,2.613,2.613,2.603,2.593,2.574,2.564,2.545,2.536,2.517,2.508,2.49,2.472,2.446,2.437,2.437,2.428,2.428,2.42,2.403,2.394,2.394,2.386,2.378,2.37,2.361,2.37,2.37,2.378,2.386,2.411,2.437,2.481,2.526,2.574,2.613,2.664,2.695,2.749,2.782,2.805,2.828,2.828,2.828,2.805,2.793,2.771,2.716,0,2.526,2.42,0,2.182,2.114,2.076,2.057,2.033,2.021,2.003,1.998,1.992,1.986,1.98,1.98,1.975,1.969,1.963,1.963,1.958,1.947,1.941,1.936,1.93,1.925,1.92,1.914,1.909,1.904,1.893,1.888,1.883,1.872,1.867,1.867,1.867,1.862,1.862,1.857,1.857,1.857,1.857,1.857,1.857,1.862,1.867,1.867,1.867,1.867,1.862,1.857,1.847,1.837,1.823,1.813,1.804,1.799,1.79,1.79,1.785,1.78,1.78,1.78,1.78,1.78,1.78,1.78,1.785,1.785,1.785,1.79,1.794,1.799,1.804,1.808,1.813,1.813,1.813,1.818,1.818,1.823,0,0,0,0,0,0,0,0,0,1.238,0,0,1.183
