1.524,1.524,1.527,1.53,1.53,1.534,1.534,1.534,1.534,1.534,1.534,1.53,1.53,1.527,1.524,1.52,1.514,1.51,1.504,1.497,1.487,1.481,1.472,1.462,1.456,1.45,1.447,1.444,1.444,1.447,1.45,1.456,1.459,1.465,1.472,1.478,1.484,1.491,1.497,1.5,1.51,1.514,1.52,1.527,1.534,1.537,1.541,1.541,1.544,1.548,1.548,1.551,1.551,1.555,1.555,1.555,1.555,1.555,1.555,1.555,1.555,1.551,1.551,1.551,1.551,1.551,1.551,1.551,1.551,1.551,1.551,1.551,1.548,1.548,1.548,1.544,1.541,1.537,1.53,1.527,1.52,1.51,1.5,1.494,1.487,1.481,1.475,1.475,1.472,1.475,1.475,1.481,1.484,1.487,1.494,1.497,1.504,1.507,1.514,1.517,1.524,1.527,1.534,1.537,1.544,1.548,1.548,1.551,1.555,1.558,1.558,1.558,1.558,1.562,1.562,1.562,1.562,1.562,1.562,1.562,1.562,1.562,1.562,1.562,1.562,1.562,1.558,1.558,1.558,1.558,1.555,1.551,1.548,1.544,1.541,1.537,1.53,1.524,1.514,1.51,1.5,1.494,1.487,1.484,1.484,1.481,1.481,1.484,1.487,1.491,1.497,1.5,1.507,1.514,1.524,1.534,1.548,1.558,1.573,1.587,1.594,1.606,1.609,1.613,1.613,1.617,1.621,1.625,1.625,1.625,1.625,1.625,1.625,1.625,1.625,1.625,1.625,1.625,1.625,1.628,1.628,1.628,1.636,1.636,1.636,1.64,1.644,1.644,1.644,1.64,1.636,1.636,1.628,1.617,1.598,1.583,1.565,1.551,1.534,1.52,1.51,1.5,1.494,1.491,1.491,1.491,1.494,1.497,1.5,1.507,1.514,1.527,1.537,1.544,1.555,1.565,1.576,1.583,1.587,1.587,1.587,1.587,1.591,1.594,1.598,1.602,1.602,1.606,1.609,1.613,1.613,1.617,1.68,1.664,1.625,1.628,1.632,1.693,1.64,1.621,1.617,1.617,1.613,1.609,1.606,1.609,1.609,1.609,1.606,1.606,1.602,1.594,1.587,1.573,1.558,1.548,1.534,1.524,1.514,1.504,1.497,1.497,1.497,1.497,1.497,1.504,1.51,0,0,1.541,1.555,1.569,1.587,1.598,1.617,1.617,1.628,1.636,1.688,1.701,1.701,1.718,1.705,1.701,1.718,1.718,1.727,1.697,1.68,1.688,1.66,1.632,1.628,1.632,1.628,1.628,1.64,1.632,1.652,1.722,1.744,1.74,1.731,1.749,1.753,1.735,1.727,1.709,1.693,1.676,1.656,1.64,1.613,1.587,1.569,1.548,1.534,1.514,1.5,1.494,1.487,1.481,1.481,1.481,1.481,1.484,1.487,1.494,1.504,0,0,0,0,0,1.583,1.598,0,1.613,1.628,1.644,1.668,0,0,0,0,0,0,0,0,0,0,0,0,0,0,0,0,0,0,0,0,0,0,0,1.562,1.555,1.548,1.541,1.534,1.527,1.52,1.514,1.51,1.507,1.504,1.504,1.5,1.497,1.497,1.5,1.5,1.504,1.504,1.507,1.51,1.517,1.527,1.53,1.534,1.541,1.548,1.555,1.558,1.565,1.569,1.573,1.576,1.583,1.591,1.594,1.594,1.598,1.598,1.598,1.594,1.591,1.583,1.58,1.576,1.573,1.565,1.562,1.555,1.548,1.544,1.537,1.534,1.527,1.52,1.514,1.507,1.504,1.5,1.494,1.491,1.487,1.484,1.484,1.484,1.481,1.478,1.478,1.475,1.475,1.475,1.468,1.465,1.462,1.459,1.456,1.453,1.453,1.45,1.447,1.447,1.447,1.447,1.447,1.45,1.453,1.453,1.456,1.459,1.462,1.462,1.468,1.472,1.468,1.472,1.475,1.475,1.472,1.472,1.472,1.468,1.468,1.468,1.465,1.465,1.462,1.462,1.462,1.459,1.459,1.456,1.456,1.456,1.453,1.456,1.456,1.456,1.453,1.45,1.453,1.45,1.45,1.447,1.447,1.447,1.447,1.45,1.45,1.447,1.447,1.444,1.441,1.441,1.438,1.438,1.435,1.432,1.432,1.429,1.429,1.429,1.429,1.429,1.432,1.435,1.441,1.456,1.475,1.487,1.504,1.524,1.537,1.555,1.569,1.569,1.569,1.562,1.565,1.562,1.558,1.558,1.551,1.548,1.544,1.537,1.53,1.517,1.494,0,1.441,1.408,1.38,1.355,1.337,1.322,1.309,1.299,1.294,1.292,1.289,1.287,1.284,1.282,1.277,1.273,1.27,1.268,1.263,1.263,1.259,1.256,1.254
1.534,1.534,1.537,1.541,1.541,1.541,1.541,1.541,1.541,1.541,1.541,1.537,1.534,1.53,1.527,1.524,1.517,1.514,1.51,1.504,1.494,1.487,1.481,1.475,1.468,1.462,1.459,1.456,1.456,1.459,1.462,1.465,1.472,1.475,1.481,1.487,1.494,1.497,1.504,1.51,1.514,1.52,1.527,1.53,1.537,1.541,1.544,1.544,1.548,1.548,1.551,1.551,1.555,1.555,1.555,1.555,1.555,1.555,1.555,1.555,1.555,1.551,1.551,1.551,1.551,1.551,1.551,1.551,1.551,1.551,1.551,1.551,1.548,1.548,1.544,1.541,1.537,1.534,1.53,1.527,1.52,1.517,1.507,1.5,1.497,1.494,1.491,1.487,1.487,1.487,1.491,1.494,1.497,1.5,1.504,1.51,1.514,1.517,1.52,1.524,1.53,1.534,1.537,1.544,1.548,1.551,1.551,1.555,1.555,1.558,1.558,1.562,1.562,1.562,1.562,1.562,1.562,1.562,1.562,1.562,1.562,1.558,1.558,1.558,1.558,1.558,1.555,1.555,1.555,1.551,1.551,1.548,1.544,1.541,1.537,1.534,1.527,1.52,1.514,1.51,1.5,1.497,1.494,1.491,1.487,1.487,1.491,1.494,1.497,1.5,1.507,1.51,1.514,1.524,1.53,1.541,1.548,1.558,1.569,1.58,1.591,1.598,1.602,1.606,1.609,1.617,1.621,1.621,1.625,1.625,1.625,1.625,1.621,1.625,1.625,1.625,1.625,1.625,1.628,1.628,1.628,1.632,1.632,1.636,1.636,1.64,1.64,1.64,1.64,1.636,1.632,1.632,1.628,1.617,1.602,1.591,1.576,1.562,1.548,1.534,1.524,1.517,1.51,1.507,1.507,1.51,1.514,1.514,1.517,1.524,1.53,1.537,1.548,1.555,1.562,1.569,1.58,1.583,1.587,1.587,1.587,1.587,1.591,1.594,1.598,1.598,1.602,1.606,1.606,1.613,1.613,1.617,1.617,1.617,1.621,1.621,1.621,1.621,1.625,1.621,1.617,1.613,1.609,1.609,1.606,1.606,1.602,1.606,1.602,1.602,1.598,1.594,1.587,1.576,1.565,1.555,1.544,1.534,1.524,1.517,1.51,1.507,1.51,1.514,1.514,1.524,1.534,1.544,1.555,1.565,1.576,1.587,1.602,1.609,1.613,1.617,1.625,1.632,1.64,1.64,1.644,1.644,1.648,1.648,1.648,1.644,1.652,1.644,1.656,1.652,1.632,1.632,1.628,1.628,1.625,1.628,1.632,1.632,1.648,1.676,1.668,1.668,1.684,1.697,1.693,1.684,1.68,1.676,1.664,1.656,1.644,1.632,1.613,1.591,1.576,1.558,1.544,1.53,1.52,1.51,1.504,1.504,1.504,1.507,1.507,1.51,1.517,1.53,1.541,1.555,1.565,1.58,1.591,1.602,1.617,1.625,1.628,1.632,1.636,1.644,1.648,1.668,1.722,1.749,0,0,1.668,0,0,1.66,1.652,0,0,0,0,0,0,0,0,0,0,1.583,1.58,1.573,1.565,1.558,1.551,1.548,1.541,1.534,1.53,1.524,1.52,1.52,1.517,1.517,1.517,1.52,1.52,1.524,1.527,1.53,1.534,1.537,1.544,1.551,1.562,1.565,1.573,1.576,1.583,1.587,1.591,1.591,1.598,1.594,1.598,1.602,1.606,1.602,1.602,1.602,1.598,1.598,1.594,1.587,1.583,1.58,1.576,1.573,1.569,1.562,1.558,1.555,1.548,1.544,1.537,1.53,1.524,1.517,1.514,1.507,1.504,1.5,1.494,1.494,1.491,1.491,1.491,1.491,1.487,1.487,1.484,1.484,1.484,1.481,1.478,1.475,1.472,1.468,1.468,1.465,1.462,1.462,1.462,1.462,1.462,1.465,1.465,1.468,1.472,1.475,1.478,1.481,1.484,1.487,1.491,1.491,1.491,1.491,1.491,1.491,1.491,1.491,1.491,1.491,1.491,1.491,1.491,1.491,1.491,1.491,1.491,1.491,1.491,1.494,1.494,1.5,1.5,1.504,1.504,1.5,1.494,1.491,1.484,1.475,1.468,1.459,1.456,1.453,1.456,1.456,1.453,1.45,1.45,1.447,1.447,1.444,1.441,1.438,1.435,1.435,1.435,1.432,1.432,1.432,1.435,1.441,1.447,1.459,1.478,0,0,1.544,1.58,1.591,1.609,1.617,1.617,1.617,1.609,1.602,1.594,1.594,1.587,1.58,1.562,1.558,1.548,1.537,1.52,1.5,1.478,1.444,1.414,1.383,1.361,1.34,1.324,1.309,1.299,1.297,1.292,1.289,1.289,1.284,1.282,1.28,1.275,1.27,1.268,1.266,1.263,1.259,1.256,1.254
1.544,1.548,1.548,1.548,1.551,1.551,1.551,1.551,1.548,1.548,1.544,1.544,1.541,1.537,1.534,1.53,1.524,1.52,1.517,1.51,1.504,1.497,1.494,1.487,1.484,1.478,1.475,1.475,1.472,1.475,1.478,1.481,1.484,1.487,1.491,1.497,1.5,1.507,1.51,1.517,1.52,1.527,1.53,1.537,1.541,1.544,1.544,1.548,1.551,1.551,1.551,1.555,1.555,1.555,1.555,1.555,1.555,1.555,1.555,1.555,1.551,1.551,1.551,1.551,1.551,1.551,1.551,1.551,1.551,1.551,1.548,1.548,1.548,1.544,1.544,1.541,1.537,1.534,1.53,1.527,1.524,1.52,1.514,1.51,1.507,1.504,1.5,1.5,1.5,1.5,1.5,1.507,1.51,1.514,1.517,1.52,1.524,1.527,1.53,1.534,1.534,1.541,1.544,1.548,1.548,1.551,1.555,1.558,1.558,1.558,1.558,1.558,1.562,1.562,1.562,1.562,1.562,1.562,1.562,1.558,1.558,1.555,1.555,1.555,1.551,1.551,1.548,1.548,1.548,1.544,1.544,1.541,1.537,1.534,1.53,1.527,1.52,1.517,1.51,1.507,1.504,1.497,1.494,1.491,1.491,1.494,1.497,1.5,1.504,1.507,1.514,1.517,1.52,1.527,1.534,1.541,1.544,1.555,1.565,1.573,1.58,1.587,1.594,1.598,1.602,1.609,1.613,1.617,1.621,1.617,1.621,1.621,1.621,1.621,1.625,1.625,1.625,1.625,1.625,1.628,1.628,1.628,1.632,1.632,1.632,1.636,1.636,1.636,1.636,1.632,1.632,1.632,1.625,1.617,1.606,1.594,1.583,1.573,1.558,1.551,1.541,1.534,1.53,1.527,1.527,1.527,1.53,1.53,1.534,1.541,1.544,1.551,1.558,1.565,1.569,1.576,1.58,1.587,1.587,1.587,1.587,1.587,1.591,1.594,1.598,1.602,1.602,1.602,1.609,1.613,1.613,1.613,1.613,1.617,1.617,1.621,1.621,1.617,1.621,1.617,1.617,1.613,1.609,1.606,1.606,1.602,1.602,1.602,1.602,1.602,1.598,1.598,1.591,1.583,1.573,1.562,1.551,1.544,1.534,1.527,1.524,1.524,1.524,1.527,1.534,1.544,1.551,1.565,1.576,1.587,1.598,1.609,1.617,1.621,1.625,1.628,1.632,1.636,1.636,1.64,1.644,1.644,1.648,1.648,1.644,1.644,1.644,1.64,1.636,1.632,1.632,1.632,1.628,1.628,1.625,1.628,1.632,1.632,1.636,1.636,1.64,1.648,1.652,1.66,1.664,1.66,1.66,1.656,1.652,1.644,1.636,1.621,1.606,1.591,1.576,1.565,1.555,1.544,1.537,1.53,1.524,1.524,1.527,1.53,1.53,1.537,1.548,1.558,1.569,1.58,1.591,1.598,1.602,1.609,1.621,1.625,1.628,1.632,1.636,1.64,1.648,1.652,1.656,1.68,1.785,1.664,1.664,1.664,1.66,1.66,1.652,0,0,0,0,0,0,0,1.602,1.598,1.594,1.587,1.58,1.576,1.569,1.565,1.558,1.555,1.548,1.541,1.537,1.534,1.534,1.534,1.534,1.534,1.537,1.541,1.544,1.551,1.555,1.562,1.562,1.569,1.576,1.587,1.598,1.602,1.606,1.609,1.613,1.617,1.621,1.617,1.617,1.613,1.613,1.613,1.613,1.609,1.609,1.606,1.602,1.598,1.594,1.591,1.587,1.583,1.58,1.576,1.573,1.565,1.562,1.558,1.555,1.551,1.548,1.541,1.537,1.527,1.524,1.52,1.517,1.514,1.51,1.507,1.507,1.507,1.507,1.507,1.504,1.5,1.5,1.497,1.497,1.494,1.491,1.487,1.487,1.484,1.484,1.484,1.481,1.481,1.481,1.484,1.484,1.484,1.487,1.487,1.494,1.494,1.5,1.504,1.504,1.507,1.507,1.507,1.51,1.51,1.51,1.51,1.514,1.514,1.517,1.517,1.52,1.52,1.524,1.527,1.527,1.527,1.527,1.534,1.537,1.537,1.541,1.544,1.548,1.551,1.555,1.548,1.537,1.527,1.514,1.504,1.487,1.475,1.465,1.456,1.459,1.459,1.456,1.453,1.453,1.45,1.45,1.447,1.444,1.441,1.438,1.438,1.435,1.435,1.435,1.438,1.438,1.447,1.456,1.475,1.497,1.527,0,0,0,0,0,0,1.652,1.652,1.648,1.64,1.636,1.632,1.621,1.609,1.587,1.583,1.565,1.548,1.527,1.5,1.481,1.447,1.414,1.388,1.363,1.345,1.327,1.311,1.302,1.299,1.294,1.292,1.289,1.287,1.284,1.28,1.275,1.27,1.268,1.266,1.263,1.259,1.256,1.254
1.558,1.562,1.562,1.562,1.562,1.565,1.565,1.562,1.562,1.558,1.555,1.555,1.551,1.548,1.541,1.537,1.534,1.53,1.524,1.52,1.514,1.507,1.504,1.5,1.497,1.494,1.491,1.491,1.491,1.494,1.494,1.497,1.5,1.504,1.507,1.51,1.514,1.517,1.52,1.524,1.53,1.534,1.537,1.544,1.548,1.551,1.551,1.555,1.555,1.558,1.558,1.562,1.562,1.558,1.558,1.558,1.562,1.558,1.558,1.555,1.555,1.555,1.555,1.555,1.555,1.555,1.555,1.555,1.555,1.555,1.551,1.548,1.548,1.548,1.544,1.541,1.537,1.534,1.53,1.53,1.527,1.524,1.52,1.517,1.517,1.517,1.514,1.514,1.514,1.514,1.517,1.517,1.52,1.524,1.524,1.527,1.53,1.534,1.537,1.541,1.541,1.548,1.551,1.551,1.555,1.558,1.558,1.558,1.558,1.562,1.562,1.562,1.562,1.562,1.558,1.558,1.558,1.558,1.558,1.555,1.551,1.551,1.551,1.548,1.548,1.544,1.544,1.544,1.541,1.541,1.537,1.534,1.53,1.527,1.524,1.52,1.517,1.514,1.507,1.504,1.5,1.497,1.494,1.494,1.494,1.497,1.5,1.504,1.507,1.51,1.514,1.52,1.524,1.527,1.534,1.537,1.544,1.551,1.558,1.565,1.573,1.576,1.583,1.587,1.594,1.602,1.606,1.609,1.613,1.617,1.621,1.621,1.625,1.621,1.621,1.625,1.625,1.621,1.625,1.625,1.628,1.628,1.632,1.632,1.632,1.636,1.636,1.636,1.632,1.632,1.628,1.628,1.625,1.617,1.606,1.598,1.591,1.58,1.573,1.562,1.555,1.551,1.548,1.544,1.544,1.544,1.548,1.548,1.548,1.555,1.558,1.562,1.569,1.573,1.576,1.58,1.583,1.591,1.591,1.591,1.591,1.594,1.594,1.594,1.598,1.598,1.602,1.606,1.609,1.609,1.613,1.613,1.617,1.617,1.617,1.617,1.617,1.617,1.613,1.617,1.613,1.609,1.606,1.602,1.598,1.598,1.598,1.598,1.598,1.598,1.598,1.594,1.591,1.583,1.576,1.569,1.562,1.551,1.544,1.541,1.537,1.537,1.541,1.544,1.548,1.558,1.569,1.58,1.591,1.598,1.606,1.613,1.621,1.621,1.625,1.628,1.628,1.628,1.632,1.632,1.636,1.636,1.64,1.64,1.64,1.64,1.636,1.636,1.632,1.632,1.632,1.628,1.628,1.625,1.625,1.625,1.632,1.632,1.636,1.636,1.64,1.644,1.648,1.652,1.652,1.652,1.652,1.648,1.644,1.636,1.625,1.617,1.602,1.591,1.583,1.573,1.565,1.558,1.551,1.548,1.544,1.548,1.551,1.555,1.558,1.565,1.576,1.583,1.594,1.602,1.606,1.609,1.613,1.621,1.625,1.625,1.628,1.628,1.632,1.636,1.644,1.652,1.656,1.656,1.66,1.66,1.66,1.66,1.656,1.656,1.648,1.64,0,1.628,1.625,1.617,1.613,1.606,1.602,1.598,1.594,1.591,1.587,1.58,1.576,1.573,1.565,1.562,1.558,1.555,1.551,1.551,1.548,1.551,1.551,1.555,1.558,1.562,1.569,1.576,1.583,1.591,1.594,1.606,1.613,1.625,1.632,1.636,1.64,1.64,1.644,1.644,1.644,1.64,1.636,1.628,1.625,1.621,1.617,1.613,1.609,1.609,1.606,1.598,1.598,1.594,1.591,1.587,1.583,1.58,1.576,1.573,1.569,1.565,1.562,1.558,1.555,1.551,1.548,1.541,1.537,1.534,1.53,1.53,1.527,1.524,1.524,1.524,1.524,1.524,1.524,1.52,1.52,1.517,1.517,1.514,1.51,1.51,1.507,1.507,1.507,1.507,1.507,1.504,1.504,1.504,1.507,1.507,1.507,1.507,1.51,1.514,1.517,1.52,1.52,1.524,1.527,1.527,1.53,1.53,1.53,1.534,1.537,1.541,1.541,1.544,1.551,1.555,1.558,1.562,1.569,1.569,1.573,1.58,1.583,1.583,1.591,1.598,1.602,1.606,1.609,1.602,1.594,1.58,1.558,1.537,1.517,1.497,1.478,1.468,1.462,1.462,1.462,1.459,1.456,1.453,1.453,1.45,1.447,1.444,1.441,1.438,1.438,1.438,1.438,1.441,1.441,1.453,1.468,1.494,1.517,1.551,0,0,1.656,1.676,0,0,0,0,0,1.676,1.672,1.664,1.652,1.64,1.621,1.602,1.587,1.562,1.537,1.504,1.481,1.45,1.42,1.394,0,1.35,1.332,1.314,1.304,1.299,1.294,1.292,1.289,1.287,1.284,1.282,1.277,1.273,1.268,1.266,1.263,1.259,1.259,1.256
1.573,1.576,1.576,1.576,1.576,1.58,1.576,1.576,1.573,1.573,1.569,1.565,1.562,1.558,1.555,1.548,1.544,1.541,1.537,1.53,1.527,1.524,1.52,1.517,1.517,1.514,1.514,1.514,1.514,1.514,1.514,1.517,1.517,1.52,1.524,1.524,1.527,1.53,1.534,1.537,1.541,1.544,1.548,1.555,1.555,1.558,1.562,1.562,1.562,1.562,1.565,1.565,1.565,1.565,1.565,1.565,1.562,1.562,1.558,1.558,1.558,1.558,1.558,1.558,1.558,1.558,1.558,1.558,1.555,1.555,1.555,1.551,1.551,1.548,1.548,1.544,1.541,1.537,1.534,1.534,1.534,1.53,1.53,1.527,1.527,1.527,1.527,1.527,1.527,1.527,1.527,1.53,1.53,1.534,1.534,1.537,1.541,1.544,1.548,1.548,1.551,1.551,1.555,1.555,1.558,1.558,1.562,1.562,1.562,1.565,1.562,1.562,1.562,1.558,1.555,1.551,1.551,1.548,1.548,1.544,1.541,1.541,1.541,1.541,1.537,1.537,1.534,1.53,1.53,1.527,1.524,1.524,1.52,1.517,1.514,1.51,1.504,1.5,1.497,1.494,1.494,1.494,1.491,1.494,1.494,1.497,1.5,1.504,1.507,1.514,1.514,1.517,1.52,1.524,1.527,1.53,1.537,1.541,1.548,1.551,1.558,1.562,1.569,1.576,1.58,1.587,1.594,1.602,1.606,1.609,1.613,1.613,1.617,1.617,1.621,1.621,1.621,1.621,1.621,1.625,1.625,1.625,1.628,1.628,1.632,1.632,1.632,1.632,1.632,1.628,1.625,1.625,1.621,1.613,1.606,1.598,1.591,1.587,1.58,1.573,1.565,1.562,1.562,1.558,1.558,1.558,1.562,1.562,1.562,1.565,1.569,1.573,1.576,1.58,1.583,1.587,1.591,1.594,1.594,1.594,1.598,1.598,1.598,1.602,1.602,1.602,1.606,1.606,1.609,1.613,1.613,1.613,1.617,1.617,1.617,1.617,1.617,1.617,1.613,1.617,1.613,1.609,1.606,1.602,1.598,1.598,1.598,1.598,1.598,1.598,1.598,1.594,1.594,1.587,1.583,1.576,1.569,1.562,1.558,1.555,1.551,1.551,1.558,1.562,1.569,1.576,1.587,1.594,1.602,1.609,1.613,1.621,1.625,1.621,1.625,1.625,1.625,1.628,1.628,1.632,1.632,1.632,1.636,1.636,1.636,1.636,1.636,1.636,1.632,1.632,1.632,1.632,1.628,1.628,1.628,1.628,1.628,1.628,1.628,1.632,1.632,1.64,1.644,1.644,1.644,1.644,1.64,1.64,1.636,1.628,1.621,1.613,1.606,1.594,1.587,1.58,1.576,1.569,1.565,1.565,1.562,1.565,1.569,1.573,1.576,1.583,1.587,1.594,1.602,1.606,1.609,1.609,1.613,1.621,1.621,1.625,1.628,1.632,1.636,1.636,1.64,1.648,1.652,1.656,1.656,1.656,1.656,1.656,1.656,1.652,1.648,1.64,1.636,1.628,1.625,1.617,1.613,1.606,1.606,1.602,1.598,1.591,1.591,1.587,1.583,1.58,1.576,1.576,1.569,1.569,1.565,1.569,1.565,1.569,1.569,1.573,1.58,1.587,1.594,1.606,1.613,1.621,1.628,1.636,1.648,1.656,1.668,1.668,1.672,1.672,1.672,1.668,1.664,1.656,1.648,1.636,1.628,1.625,1.621,1.617,1.613,1.609,1.606,1.602,1.598,1.594,1.591,1.591,1.587,1.583,1.58,1.576,1.573,1.573,1.569,1.569,1.565,1.565,1.562,1.555,1.555,1.551,1.551,1.548,1.544,1.544,1.544,1.544,1.544,1.544,1.541,1.541,1.541,1.537,1.541,1.537,1.534,1.53,1.53,1.53,1.527,1.527,1.527,1.527,1.527,1.527,1.527,1.527,1.527,1.53,1.53,1.534,1.534,1.537,1.537,1.541,1.544,1.544,1.548,1.548,1.551,1.555,1.558,1.558,1.565,1.573,1.58,1.583,1.591,1.598,1.606,1.613,1.617,1.625,1.632,1.636,1.64,1.652,1.656,1.656,1.66,1.664,1.648,1.632,0,0,1.558,1.527,1.5,1.481,1.472,1.468,1.465,1.462,1.459,1.456,1.456,1.453,1.447,1.444,1.441,1.441,1.441,1.441,1.441,1.444,1.444,1.459,1.481,1.507,1.541,1.58,0,1.66,1.693,1.709,1.718,1.718,1.718,1.722,1.714,1.709,1.709,1.697,0,1.676,1.656,1.64,1.613,1.58,1.548,1.51,1.487,1.456,1.429,1.4,0,1.353,1.334,1.316,1.306,1.302,1.297,1.294,1.292,1.289,1.284,1.282,1.277,1.273,1.27,1.268,1.263,1.261,1.259,1.256
1.587,1.591,1.591,1.591,1.591,1.591,1.587,1.587,1.583,1.58,1.58,1.573,1.569,1.565,1.562,1.555,1.551,1.551,1.544,1.541,1.541,1.537,1.537,1.537,1.537,1.537,1.537,1.537,1.534,1.537,1.537,1.537,1.537,1.537,1.541,1.541,1.541,1.544,1.544,1.551,1.551,1.555,1.555,1.558,1.562,1.562,1.565,1.565,1.565,1.565,1.569,1.569,1.569,1.569,1.573,1.573,1.573,1.573,1.573,1.573,1.573,1.573,1.573,1.569,1.565,1.565,1.562,1.562,1.558,1.558,1.555,1.551,1.551,1.548,1.548,1.544,1.541,1.541,1.537,1.541,1.537,1.537,1.537,1.537,1.537,1.537,1.537,1.537,1.537,1.537,1.537,1.541,1.541,1.541,1.544,1.544,1.548,1.551,1.555,1.555,1.558,1.558,1.562,1.562,1.565,1.562,1.562,1.565,1.565,1.562,1.562,1.558,1.558,1.551,1.548,1.548,1.541,1.537,1.537,1.534,1.534,1.53,1.527,1.527,1.524,1.524,1.52,1.517,1.517,1.514,1.51,1.51,1.507,1.504,1.5,1.497,1.494,1.494,1.494,1.491,1.491,1.491,1.491,1.491,1.494,1.5,1.5,1.504,1.507,1.51,1.514,1.517,1.517,1.517,1.52,1.524,1.524,1.527,1.53,1.537,1.541,1.548,1.551,1.558,1.562,1.569,1.58,1.583,1.591,1.598,1.602,1.606,1.609,1.613,1.617,1.617,1.621,1.621,1.621,1.621,1.625,1.625,1.625,1.625,1.628,1.628,1.628,1.628,1.628,1.625,1.625,1.621,1.621,1.613,1.606,1.602,1.594,1.591,1.587,1.583,1.576,1.573,1.573,1.569,1.573,1.573,1.573,1.573,1.573,1.576,1.58,1.583,1.587,1.587,1.591,1.591,1.598,1.598,1.602,1.602,1.602,1.602,1.606,1.606,1.606,1.609,1.609,1.609,1.613,1.617,1.617,1.617,1.617,1.621,1.621,1.621,1.621,1.621,1.617,1.617,1.617,1.613,1.609,1.606,1.602,1.602,1.602,1.598,1.598,1.598,1.598,1.598,1.598,1.591,1.587,1.583,1.58,1.576,1.573,1.569,1.569,1.573,1.573,1.58,1.587,1.594,1.598,1.606,1.613,1.617,1.621,1.625,1.625,1.625,1.625,1.628,1.625,1.628,1.628,1.628,1.628,1.628,1.632,1.632,1.632,1.632,1.632,1.632,1.632,1.628,1.628,1.628,1.628,1.628,1.628,1.628,1.628,1.628,1.628,1.632,1.632,1.636,1.64,1.64,1.64,1.64,1.636,1.636,1.632,1.625,1.621,1.613,1.606,1.602,1.598,1.591,1.587,1.583,1.583,1.58,1.58,1.583,1.587,1.591,1.594,1.598,1.602,1.609,1.613,1.617,1.617,1.617,1.617,1.621,1.621,1.625,1.628,1.632,1.632,1.636,1.64,1.644,1.652,1.656,1.656,1.656,1.656,1.656,1.656,1.652,1.644,1.64,1.636,1.628,1.625,1.617,1.613,1.609,1.606,1.606,1.602,1.602,1.598,1.594,1.594,1.594,1.591,1.587,1.587,1.583,1.583,1.583,1.587,1.587,1.591,1.594,1.602,1.609,1.621,1.628,1.64,1.648,1.656,1.664,1.672,1.684,1.693,1.693,1.693,1.688,1.684,1.68,1.672,1.664,1.652,1.64,1.632,1.628,1.625,1.621,1.617,1.613,1.609,1.606,1.602,1.602,1.598,1.594,1.591,1.587,1.587,1.583,1.583,1.58,1.58,1.58,1.576,1.576,1.576,1.573,1.569,1.569,1.569,1.569,1.565,1.565,1.562,1.565,1.565,1.565,1.565,1.562,1.562,1.562,1.562,1.558,1.555,1.555,1.555,1.555,1.551,1.551,1.548,1.548,1.548,1.548,1.548,1.544,1.544,1.548,1.548,1.551,1.551,1.555,1.558,1.562,1.562,1.565,1.565,1.569,1.573,1.576,1.576,1.58,1.583,1.591,1.598,1.606,1.613,1.625,1.632,1.64,1.648,1.66,1.668,1.676,1.68,1.693,1.697,1.705,1.705,1.714,1.705,1.684,1.66,0,0,1.558,1.524,1.497,1.481,1.468,1.468,1.465,1.462,1.459,1.456,1.456,1.45,1.447,1.444,1.441,1.441,1.441,1.444,1.444,1.444,1.462,1.487,1.52,1.558,1.602,1.644,1.693,1.727,1.744,1.753,1.753,1.744,1.749,1.749,1.74,1.735,1.731,1.722,1.705,0,0,1.632,1.598,1.562,1.524,1.494,1.462,1.432,1.408,0,1.361,1.337,1.319,1.306,1.302,1.297,1.294,1.292,1.289,1.284,1.282,1.277,1.275,1.27,1.268,1.263,1.261,1.259,1.256
1.602,1.602,1.606,1.606,1.606,1.606,1.602,1.598,1.594,1.587,1.583,1.58,1.576,1.569,1.565,1.562,1.558,1.555,1.551,1.548,1.548,1.544,1.544,1.544,1.548,1.551,1.551,1.555,1.555,1.558,1.558,1.558,1.558,1.558,1.558,1.558,1.558,1.562,1.562,1.565,1.569,1.569,1.573,1.573,1.576,1.576,1.58,1.576,1.58,1.58,1.583,1.583,1.587,1.587,1.587,1.591,1.594,1.594,1.594,1.594,1.594,1.594,1.591,1.591,1.587,1.587,1.58,1.576,1.573,1.569,1.565,1.562,1.558,1.555,1.551,1.548,1.548,1.544,1.548,1.548,1.548,1.548,1.548,1.548,1.548,1.548,1.548,1.548,1.548,1.548,1.548,1.548,1.551,1.551,1.551,1.555,1.555,1.558,1.562,1.562,1.562,1.565,1.565,1.565,1.565,1.562,1.562,1.562,1.562,1.558,1.555,1.548,1.548,1.541,1.537,1.534,1.53,1.527,1.524,1.52,1.517,1.517,1.514,1.514,1.51,1.51,1.507,1.504,1.504,1.5,1.497,1.497,1.494,1.491,1.491,1.487,1.487,1.487,1.487,1.487,1.487,1.491,1.491,1.491,1.494,1.497,1.5,1.504,1.504,1.507,1.507,1.51,1.51,1.514,1.51,1.514,1.514,1.517,1.517,1.52,1.524,1.527,1.534,1.537,1.541,1.548,1.555,1.565,1.576,1.58,1.591,1.598,1.602,1.606,1.609,1.613,1.617,1.617,1.617,1.621,1.621,1.621,1.625,1.625,1.625,1.628,1.628,1.628,1.625,1.625,1.625,1.621,1.621,1.613,1.606,1.602,1.598,1.594,1.591,1.587,1.583,1.583,1.58,1.58,1.58,1.583,1.583,1.583,1.583,1.587,1.587,1.594,1.594,1.598,1.602,1.602,1.606,1.606,1.606,1.609,1.609,1.613,1.613,1.613,1.613,1.617,1.617,1.617,1.617,1.617,1.621,1.625,1.625,1.625,1.625,1.625,1.625,1.625,1.621,1.625,1.621,1.617,1.613,1.609,1.606,1.606,1.602,1.602,1.602,1.602,1.602,1.602,1.602,1.602,1.598,1.594,1.591,1.591,1.591,1.587,1.587,1.587,1.594,1.598,1.606,1.609,1.613,1.617,1.621,1.625,1.628,1.628,1.632,1.632,1.632,1.632,1.632,1.632,1.636,1.632,1.632,1.632,1.636,1.636,1.636,1.636,1.636,1.636,1.636,1.636,1.636,1.632,1.632,1.632,1.632,1.632,1.632,1.632,1.636,1.636,1.636,1.64,1.64,1.64,1.636,1.636,1.632,1.632,1.628,1.625,1.621,1.613,1.613,1.609,1.606,1.606,1.602,1.598,1.598,1.598,1.598,1.602,1.606,1.606,1.609,1.609,1.613,1.617,1.621,1.621,1.621,1.621,1.621,1.625,1.625,1.628,1.625,1.628,1.632,1.636,1.644,1.648,1.652,1.652,1.656,1.656,1.656,1.656,1.652,1.648,1.644,1.636,1.632,1.625,1.625,1.617,1.613,1.613,1.609,1.609,1.609,1.606,1.609,1.606,1.606,1.606,1.606,1.602,1.602,1.602,1.602,1.606,1.606,1.609,1.613,1.617,1.628,1.636,1.644,1.656,1.664,1.672,1.676,1.684,1.693,1.697,1.701,1.701,1.697,1.688,1.684,1.68,1.672,1.66,1.652,1.64,1.636,1.632,1.628,1.625,1.621,1.617,1.613,1.609,1.609,1.606,1.602,1.602,1.598,1.598,1.594,1.594,1.591,1.591,1.591,1.591,1.591,1.591,1.587,1.587,1.583,1.583,1.587,1.587,1.583,1.583,1.583,1.587,1.587,1.587,1.587,1.583,1.58,1.58,1.58,1.576,1.573,1.573,1.573,1.569,1.569,1.565,1.565,1.565,1.565,1.565,1.562,1.565,1.565,1.565,1.565,1.569,1.569,1.573,1.573,1.576,1.576,1.58,1.58,1.58,1.583,1.583,1.587,1.594,1.598,1.606,1.613,1.625,1.636,1.648,1.66,1.672,1.68,1.697,1.701,1.714,1.722,1.731,1.735,1.74,1.744,1.749,1.744,1.735,1.714,0,0,0,1.555,1.52,1.494,1.475,1.468,1.465,1.465,1.462,1.459,1.456,1.45,1.447,1.444,1.444,1.441,1.444,1.444,1.447,1.447,1.468,1.497,1.537,0,1.625,1.676,1.731,1.758,1.771,1.78,1.78,1.78,1.78,1.776,1.771,1.767,1.758,1.753,1.74,1.727,0,0,1.625,1.583,1.541,1.51,1.475,1.441,1.411,1.385,1.363,1.34,1.322,1.309,1.302,1.299,1.294,1.292,1.289,1.287,1.282,1.28,1.275,1.27,1.268,1.263,1.261,1.259,1.256
1.613,1.617,1.621,1.621,1.621,1.621,1.617,1.613,1.609,1.606,1.602,1.598,1.594,1.591,1.587,1.583,1.583,1.576,1.573,1.569,1.565,1.562,1.558,1.558,1.558,1.558,1.562,1.562,1.565,1.569,1.573,1.573,1.573,1.576,1.576,1.58,1.58,1.58,1.583,1.591,1.591,1.594,1.594,1.598,1.598,1.602,1.602,1.602,1.602,1.602,1.606,1.609,1.609,1.613,1.613,1.617,1.617,1.617,1.617,1.617,1.617,1.621,1.621,1.617,1.613,1.609,1.606,1.602,1.598,1.587,1.583,1.573,1.565,1.565,1.562,1.558,1.555,1.555,1.555,1.555,1.555,1.558,1.555,1.555,1.555,1.558,1.558,1.558,1.558,1.558,1.558,1.558,1.558,1.558,1.558,1.558,1.562,1.565,1.565,1.565,1.565,1.565,1.569,1.565,1.562,1.562,1.558,1.555,1.551,1.548,1.544,1.537,1.534,1.53,1.527,1.52,1.517,1.51,1.507,1.504,1.504,1.5,1.5,1.497,1.497,1.497,1.494,1.491,1.487,1.487,1.484,1.481,1.481,1.478,1.478,1.478,1.478,1.478,1.481,1.481,1.484,1.487,1.487,1.491,1.491,1.494,1.494,1.497,1.497,1.5,1.5,1.5,1.5,1.5,1.5,1.5,1.5,1.5,1.504,1.504,1.507,1.51,1.514,1.517,1.52,1.527,1.534,1.541,1.551,1.558,1.569,1.576,1.587,1.594,1.602,1.609,1.613,1.613,1.617,1.621,1.621,1.621,1.625,1.625,1.625,1.628,1.625,1.625,1.625,1.625,1.625,1.621,1.617,1.613,1.606,1.602,1.598,1.598,1.594,1.591,1.591,1.591,1.587,1.587,1.591,1.591,1.591,1.591,1.594,1.594,1.598,1.598,1.602,1.606,1.606,1.609,1.613,1.613,1.613,1.617,1.617,1.621,1.621,1.621,1.621,1.621,1.621,1.625,1.625,1.625,1.625,1.625,1.628,1.628,1.628,1.632,1.632,1.628,1.628,1.625,1.625,1.621,1.617,1.613,1.609,1.609,1.606,1.606,1.609,1.609,1.609,1.609,1.609,1.609,1.609,1.609,1.609,1.609,1.606,1.606,1.606,1.609,1.613,1.617,1.621,1.625,1.625,1.628,1.632,1.636,1.636,1.636,1.64,1.64,1.64,1.64,1.64,1.64,1.644,1.64,1.64,1.64,1.644,1.644,1.644,1.644,1.644,1.644,1.64,1.64,1.64,1.64,1.64,1.64,1.64,1.644,1.644,1.644,1.644,1.644,1.644,1.644,1.644,1.644,1.64,1.64,1.64,1.636,1.636,1.632,1.628,1.625,1.625,1.621,1.617,1.617,1.617,1.613,1.613,1.613,1.617,1.617,1.617,1.621,1.621,1.625,1.625,1.625,1.625,1.628,1.628,1.625,1.628,1.628,1.628,1.632,1.632,1.632,1.636,1.64,1.64,1.644,1.648,1.648,1.652,1.652,1.652,1.648,1.648,1.644,1.64,1.636,1.632,1.628,1.625,1.621,1.621,1.617,1.617,1.617,1.617,1.617,1.621,1.621,1.621,1.625,1.621,1.621,1.621,1.625,1.625,1.625,1.628,1.632,1.636,1.644,1.652,1.656,1.664,1.672,1.676,1.68,1.688,1.693,1.697,1.697,1.701,1.697,1.693,1.688,1.684,1.676,1.672,1.66,1.656,1.644,1.64,1.636,1.632,1.628,1.625,1.625,1.621,1.617,1.617,1.613,1.609,1.609,1.609,1.606,1.606,1.606,1.602,1.602,1.602,1.602,1.602,1.602,1.602,1.598,1.598,1.598,1.598,1.602,1.602,1.602,1.602,1.606,1.609,1.609,1.606,1.602,1.602,1.602,1.598,1.594,1.591,1.591,1.591,1.591,1.587,1.587,1.587,1.583,1.583,1.583,1.583,1.58,1.576,1.58,1.583,1.583,1.583,1.583,1.587,1.587,1.591,1.591,1.591,1.594,1.594,1.598,1.602,1.602,1.609,1.617,1.632,1.644,1.656,1.672,1.688,1.705,1.718,1.731,1.74,1.753,1.762,1.771,1.776,1.78,1.785,1.79,1.785,1.78,1.767,1.735,0,0,0,1.548,1.51,1.484,1.472,1.468,1.465,1.462,1.459,1.459,1.453,1.447,1.444,1.444,1.441,1.444,1.444,1.447,1.447,1.475,1.51,1.551,0,1.648,1.701,1.758,1.78,1.79,1.799,1.799,1.799,1.799,1.799,1.799,1.799,1.79,1.785,1.776,1.762,1.735,0,0,1.609,1.562,1.527,1.484,1.444,1.414,1.388,1.363,1.34,1.319,1.309,1.304,1.299,1.297,1.292,1.289,1.287,1.282,1.28,1.275,1.273,1.268,1.263,1.261,1.259,1.256
1.625,1.628,1.632,1.636,1.636,1.636,1.636,1.632,1.632,1.628,1.628,1.625,1.617,1.617,1.613,1.613,1.609,1.606,1.606,1.598,1.594,1.591,1.587,1.587,1.587,1.587,1.587,1.591,1.594,1.594,1.598,1.598,1.598,1.602,1.602,1.602,1.606,1.609,1.613,1.617,1.617,1.621,1.621,1.621,1.625,1.625,1.625,1.625,1.625,1.628,1.628,1.632,1.632,1.636,1.636,1.64,1.644,1.644,1.644,1.644,1.648,1.648,1.648,1.644,1.64,1.636,1.632,1.628,1.621,1.613,1.606,1.594,1.583,1.576,1.573,1.565,1.565,1.562,1.565,1.562,1.565,1.565,1.565,1.565,1.565,1.565,1.565,1.565,1.565,1.565,1.562,1.562,1.562,1.558,1.558,1.558,1.558,1.558,1.558,1.562,1.562,1.558,1.558,1.555,1.555,1.548,1.544,1.541,1.537,1.534,1.527,1.527,1.52,1.517,1.51,1.507,1.5,1.494,1.491,1.487,1.487,1.484,1.484,1.484,1.484,1.481,1.481,1.478,1.478,1.475,1.472,1.468,1.468,1.468,1.468,1.468,1.468,1.468,1.472,1.475,1.478,1.481,1.481,1.484,1.484,1.487,1.487,1.487,1.491,1.491,1.491,1.491,1.491,1.491,1.487,1.487,1.487,1.487,1.487,1.487,1.487,1.491,1.494,1.497,1.5,1.504,1.51,1.517,1.524,1.534,1.544,1.555,1.569,1.576,1.587,1.598,1.606,1.613,1.617,1.617,1.621,1.621,1.625,1.625,1.625,1.628,1.628,1.625,1.625,1.628,1.625,1.621,1.617,1.617,1.613,1.606,1.606,1.602,1.598,1.598,1.598,1.598,1.598,1.598,1.598,1.598,1.598,1.598,1.602,1.602,1.606,1.606,1.609,1.613,1.617,1.617,1.621,1.621,1.625,1.625,1.625,1.625,1.628,1.628,1.628,1.628,1.632,1.628,1.632,1.632,1.632,1.632,1.632,1.636,1.636,1.636,1.636,1.636,1.636,1.636,1.632,1.632,1.628,1.625,1.625,1.621,1.621,1.621,1.621,1.621,1.621,1.625,1.625,1.625,1.625,1.625,1.628,1.628,1.628,1.628,1.628,1.628,1.632,1.632,1.636,1.636,1.64,1.64,1.644,1.644,1.648,1.648,1.652,1.648,1.652,1.652,1.652,1.652,1.652,1.652,1.652,1.652,1.652,1.652,1.652,1.652,1.652,1.652,1.652,1.652,1.652,1.652,1.652,1.652,1.652,1.652,1.656,1.652,1.652,1.652,1.652,1.652,1.652,1.652,1.648,1.648,1.648,1.648,1.648,1.644,1.644,1.64,1.64,1.636,1.636,1.636,1.632,1.632,1.628,1.628,1.628,1.632,1.632,1.632,1.632,1.636,1.636,1.636,1.636,1.636,1.636,1.632,1.632,1.636,1.636,1.636,1.636,1.64,1.64,1.64,1.644,1.644,1.648,1.648,1.648,1.652,1.648,1.644,1.644,1.64,1.636,1.632,1.632,1.628,1.628,1.625,1.625,1.625,1.628,1.625,1.628,1.632,1.632,1.636,1.64,1.636,1.636,1.64,1.64,1.644,1.648,1.648,1.652,1.652,1.656,1.66,1.664,1.672,1.676,1.68,1.684,1.688,1.693,1.697,1.701,1.701,1.705,1.701,1.693,1.688,1.684,1.68,1.672,1.664,1.66,1.652,1.644,1.644,1.64,1.64,1.636,1.632,1.628,1.625,1.625,1.625,1.621,1.617,1.613,1.613,1.613,1.609,1.609,1.609,1.609,1.609,1.613,1.609,1.613,1.613,1.613,1.617,1.617,1.621,1.621,1.625,1.625,1.625,1.632,1.628,1.628,1.625,1.621,1.621,1.617,1.613,1.613,1.609,1.606,1.606,1.609,1.606,1.602,1.602,1.598,1.598,1.598,1.594,1.594,1.594,1.594,1.594,1.594,1.598,1.598,1.598,1.602,1.602,1.602,1.602,1.606,1.606,1.609,1.613,1.621,1.632,1.648,1.66,1.68,1.701,1.718,1.735,1.758,1.771,1.78,1.794,1.804,1.808,1.813,1.813,1.818,1.823,1.823,1.823,1.813,1.79,1.753,0,0,0,1.534,1.497,1.478,1.472,1.465,1.465,1.462,1.459,1.453,1.447,1.447,1.441,1.441,1.444,1.447,1.447,1.447,1.481,1.524,0,0,1.672,1.731,1.78,1.794,1.804,1.808,1.808,1.813,1.818,1.818,1.813,1.813,1.813,1.813,1.804,1.794,1.771,1.74,0,0,1.594,1.548,1.497,1.447,1.414,1.388,1.363,1.342,1.322,1.309,1.304,1.299,1.297,1.292,1.289,1.284,1.282,1.28,1.275,1.273,1.268,1.266,1.261,1.259,1.259
1.636,1.64,1.648,1.648,1.652,1.656,1.656,1.652,1.656,1.656,1.656,1.648,1.648,1.648,1.644,1.644,1.644,1.64,1.632,1.632,1.625,1.621,1.621,1.621,1.617,1.617,1.617,1.617,1.621,1.621,1.621,1.625,1.625,1.628,1.628,1.628,1.636,1.64,1.64,1.644,1.648,1.648,1.652,1.652,1.652,1.652,1.656,1.652,1.656,1.656,1.656,1.656,1.66,1.66,1.66,1.664,1.668,1.668,1.672,1.672,1.672,1.672,1.672,1.672,1.668,1.664,1.66,1.652,1.648,1.64,1.628,1.621,1.609,1.598,1.591,1.583,1.576,1.573,1.573,1.569,1.573,1.573,1.573,1.573,1.573,1.569,1.569,1.569,1.565,1.565,1.562,1.558,1.555,1.555,1.551,1.551,1.551,1.551,1.548,1.548,1.548,1.544,1.544,1.541,1.537,1.53,1.527,1.527,1.52,1.517,1.514,1.507,1.504,1.497,1.494,1.487,1.484,1.478,1.475,1.472,1.472,1.468,1.468,1.468,1.468,1.468,1.468,1.468,1.465,1.462,1.462,1.459,1.459,1.456,1.459,1.459,1.459,1.462,1.462,1.465,1.468,1.472,1.472,1.475,1.475,1.475,1.475,1.478,1.478,1.475,1.478,1.478,1.475,1.478,1.475,1.475,1.475,1.475,1.472,1.472,1.472,1.472,1.475,1.475,1.481,1.484,1.487,1.494,1.497,1.504,1.517,1.524,1.537,1.555,1.565,1.576,1.587,1.598,1.606,1.609,1.617,1.621,1.621,1.625,1.625,1.628,1.628,1.628,1.625,1.625,1.625,1.625,1.621,1.617,1.613,1.609,1.609,1.606,1.606,1.602,1.602,1.602,1.602,1.602,1.602,1.602,1.602,1.606,1.606,1.609,1.613,1.613,1.617,1.621,1.625,1.628,1.628,1.632,1.632,1.636,1.636,1.636,1.636,1.636,1.64,1.64,1.64,1.64,1.64,1.64,1.64,1.64,1.644,1.644,1.644,1.644,1.648,1.648,1.644,1.644,1.64,1.64,1.64,1.636,1.636,1.636,1.632,1.636,1.636,1.636,1.636,1.636,1.64,1.64,1.644,1.644,1.648,1.648,1.648,1.648,1.648,1.648,1.648,1.652,1.652,1.652,1.656,1.656,1.656,1.66,1.66,1.66,1.664,1.664,1.664,1.664,1.664,1.664,1.664,1.668,1.668,1.664,1.664,1.664,1.664,1.664,1.664,1.664,1.664,1.664,1.664,1.664,1.664,1.664,1.664,1.664,1.664,1.664,1.664,1.664,1.664,1.664,1.668,1.664,1.664,1.664,1.664,1.664,1.66,1.664,1.66,1.66,1.656,1.656,1.656,1.656,1.652,1.648,1.648,1.648,1.644,1.644,1.648,1.644,1.644,1.644,1.644,1.644,1.648,1.644,1.644,1.644,1.644,1.64,1.64,1.644,1.644,1.644,1.644,1.644,1.648,1.648,1.648,1.652,1.652,1.652,1.648,1.644,1.644,1.64,1.64,1.636,1.636,1.632,1.632,1.632,1.636,1.636,1.64,1.64,1.644,1.648,1.652,1.652,1.656,1.656,1.656,1.656,1.66,1.66,1.664,1.668,1.668,1.672,1.672,1.676,1.68,1.684,1.684,1.688,1.693,1.693,1.693,1.697,1.697,1.701,1.701,1.701,1.697,1.688,1.684,1.68,1.676,1.672,1.664,1.656,1.652,1.652,1.652,1.648,1.644,1.64,1.64,1.636,1.636,1.632,1.632,1.628,1.625,1.625,1.621,1.621,1.621,1.621,1.617,1.621,1.621,1.625,1.625,1.625,1.632,1.632,1.64,1.644,1.644,1.648,1.652,1.652,1.656,1.656,1.652,1.648,1.644,1.64,1.64,1.64,1.636,1.632,1.632,1.632,1.636,1.636,1.632,1.628,1.625,1.621,1.625,1.621,1.617,1.613,1.609,1.609,1.613,1.613,1.613,1.613,1.617,1.617,1.613,1.613,1.613,1.617,1.621,1.625,1.632,1.644,1.66,1.68,1.701,1.718,1.744,1.762,1.785,1.799,1.808,1.818,1.828,1.833,1.833,1.837,1.837,1.842,1.847,1.842,1.837,1.828,1.799,0,0,0,1.569,1.524,1.491,1.475,1.468,1.465,1.462,1.456,1.453,1.447,1.447,1.441,1.441,1.441,1.444,1.444,1.453,1.491,1.541,0,0,0,1.758,1.808,1.823,1.823,1.823,1.828,1.828,1.833,1.833,1.833,1.833,1.833,1.833,1.828,1.828,1.808,1.776,1.735,0,1.632,1.58,1.527,1.468,1.42,1.385,1.361,1.342,1.322,1.311,1.304,1.299,1.297,1.292,1.287,1.284,1.282,1.277,1.275,1.27,1.268,1.266,1.261,1.259,1.259
1.648,1.652,1.66,1.664,1.668,1.672,1.676,1.676,1.68,1.684,1.684,1.68,1.68,1.676,1.676,1.676,1.676,1.672,1.668,1.664,1.66,1.66,1.656,1.656,1.656,1.652,1.652,1.652,1.652,1.652,1.652,1.656,1.656,1.656,1.66,1.66,1.668,1.668,1.672,1.676,1.68,1.684,1.684,1.684,1.688,1.688,1.688,1.684,1.684,1.684,1.684,1.684,1.688,1.693,1.693,1.697,1.697,1.701,1.701,1.705,1.705,1.705,1.705,1.705,1.701,1.697,1.693,1.688,1.68,1.672,1.66,1.648,1.632,1.625,1.613,1.602,1.594,1.587,1.583,1.58,1.58,1.58,1.576,1.576,1.576,1.573,1.573,1.569,1.569,1.565,1.558,1.555,1.551,1.544,1.541,1.541,1.537,1.534,1.534,1.534,1.53,1.53,1.527,1.524,1.52,1.514,1.51,1.507,1.504,1.497,1.494,1.487,1.484,1.481,1.475,1.472,1.465,1.462,1.459,1.456,1.456,1.453,1.453,1.456,1.456,1.456,1.456,1.456,1.453,1.453,1.45,1.447,1.444,1.444,1.444,1.447,1.447,1.45,1.453,1.456,1.459,1.462,1.462,1.462,1.465,1.462,1.462,1.462,1.462,1.462,1.462,1.462,1.462,1.459,1.459,1.462,1.459,1.459,1.456,1.456,1.456,1.456,1.456,1.456,1.462,1.462,1.465,1.468,1.472,1.478,1.487,1.494,1.507,1.52,1.534,1.544,1.558,1.573,1.583,1.594,1.602,1.606,1.613,1.621,1.625,1.625,1.628,1.628,1.628,1.625,1.625,1.625,1.621,1.617,1.613,1.609,1.609,1.606,1.606,1.606,1.606,1.606,1.606,1.606,1.606,1.606,1.606,1.609,1.613,1.613,1.617,1.621,1.621,1.628,1.628,1.632,1.636,1.636,1.64,1.64,1.644,1.644,1.644,1.648,1.648,1.648,1.648,1.648,1.648,1.652,1.652,1.652,1.652,1.652,1.652,1.656,1.656,1.656,1.656,1.656,1.656,1.652,1.652,1.652,1.652,1.652,1.648,1.648,1.652,1.652,1.656,1.656,1.656,1.66,1.66,1.664,1.664,1.668,1.668,1.664,1.664,1.668,1.668,1.668,1.668,1.668,1.672,1.672,1.676,1.676,1.676,1.68,1.68,1.68,1.684,1.684,1.684,1.684,1.684,1.684,1.684,1.68,1.68,1.68,1.68,1.68,1.68,1.68,1.68,1.68,1.68,1.68,1.676,1.676,1.68,1.68,1.68,1.68,1.68,1.68,1.68,1.68,1.68,1.68,1.68,1.68,1.68,1.68,1.68,1.68,1.68,1.676,1.676,1.676,1.676,1.672,1.672,1.668,1.664,1.664,1.66,1.66,1.66,1.66,1.656,1.66,1.656,1.656,1.656,1.656,1.652,1.652,1.652,1.652,1.652,1.652,1.652,1.652,1.652,1.656,1.656,1.656,1.652,1.656,1.656,1.656,1.652,1.648,1.648,1.644,1.644,1.644,1.644,1.644,1.644,1.644,1.648,1.652,1.656,1.66,1.66,1.664,1.668,1.668,1.672,1.672,1.672,1.672,1.676,1.68,1.68,1.684,1.684,1.688,1.688,1.688,1.688,1.693,1.693,1.697,1.697,1.697,1.697,1.697,1.701,1.701,1.701,1.701,1.697,1.688,1.688,1.684,1.68,1.676,1.672,1.668,1.664,1.66,1.66,1.656,1.656,1.652,1.652,1.648,1.648,1.648,1.644,1.644,1.64,1.64,1.64,1.636,1.64,1.64,1.64,1.64,1.648,1.648,1.652,1.656,1.66,1.664,1.668,1.676,1.676,1.676,1.68,1.68,1.68,1.68,1.676,1.672,1.668,1.668,1.664,1.664,1.66,1.66,1.664,1.664,1.668,1.672,1.672,1.668,1.668,1.664,1.664,1.66,1.656,1.648,1.64,1.64,1.64,1.636,1.636,1.632,1.628,1.628,1.625,1.621,1.625,1.625,1.625,1.628,1.636,1.652,1.668,1.693,1.714,1.735,1.758,1.78,1.804,1.823,1.828,1.837,1.842,1.847,1.852,1.852,1.857,1.857,1.857,1.862,1.862,1.852,1.833,1.799,0,0,0,1.544,1.504,1.478,1.468,1.465,1.462,1.456,1.45,1.447,1.444,1.441,1.441,1.441,1.444,1.444,1.459,1.5,1.551,0,0,1.722,1.78,1.837,1.842,1.842,1.842,1.842,1.847,1.847,1.852,1.852,1.852,1.847,1.847,1.847,1.847,1.833,1.808,1.776,1.731,1.68,1.625,1.562,1.494,0,1.385,1.363,1.34,1.322,1.311,1.304,1.302,1.297,1.292,1.287,1.284,1.282,1.28,1.275,1.273,1.268,1.266,1.263,1.263,1.261
1.66,1.664,1.672,1.68,1.684,1.688,1.693,1.697,1.701,1.709,1.709,1.709,1.714,1.714,1.714,1.714,1.714,1.709,1.705,1.701,1.697,1.693,1.693,1.693,1.693,1.688,1.684,1.684,1.688,1.688,1.688,1.688,1.688,1.693,1.693,1.697,1.701,1.705,1.714,1.714,1.718,1.718,1.718,1.722,1.722,1.722,1.722,1.718,1.718,1.718,1.722,1.722,1.722,1.727,1.731,1.731,1.735,1.735,1.735,1.74,1.744,1.744,1.74,1.74,1.735,1.731,1.727,1.722,1.714,1.705,1.693,1.68,1.664,1.652,1.636,1.625,1.613,1.602,1.594,1.587,1.587,1.587,1.583,1.58,1.58,1.573,1.573,1.565,1.562,1.558,1.551,1.544,1.537,1.534,1.53,1.527,1.524,1.524,1.517,1.517,1.517,1.514,1.51,1.507,1.5,1.494,1.491,1.487,1.481,1.475,1.475,1.468,1.465,1.459,1.456,1.45,1.447,1.444,1.441,1.438,1.438,1.438,1.438,1.441,1.441,1.444,1.444,1.444,1.441,1.441,1.438,1.435,1.432,1.432,1.435,1.435,1.435,1.438,1.441,1.444,1.447,1.45,1.45,1.45,1.45,1.45,1.45,1.45,1.45,1.447,1.447,1.447,1.447,1.447,1.447,1.447,1.444,1.441,1.441,1.441,1.441,1.441,1.438,1.438,1.444,1.444,1.444,1.447,1.447,1.453,1.459,1.465,1.475,1.484,1.494,1.507,1.517,1.53,1.541,1.551,1.565,1.573,1.58,1.587,1.594,1.602,1.602,1.606,1.606,1.606,1.606,1.606,1.606,1.606,1.602,1.602,1.594,1.598,1.594,1.594,1.594,1.594,1.598,1.598,1.598,1.602,1.602,1.602,1.606,1.609,1.609,1.613,1.617,1.621,1.628,1.632,1.632,1.636,1.64,1.644,1.648,1.648,1.648,1.652,1.652,1.652,1.652,1.652,1.656,1.656,1.656,1.656,1.656,1.656,1.66,1.66,1.664,1.664,1.664,1.664,1.664,1.664,1.664,1.664,1.668,1.668,1.664,1.668,1.668,1.668,1.672,1.676,1.676,1.68,1.68,1.684,1.684,1.684,1.684,1.688,1.688,1.688,1.688,1.688,1.688,1.688,1.693,1.693,1.693,1.697,1.697,1.697,1.701,1.701,1.701,1.701,1.701,1.701,1.701,1.701,1.701,1.701,1.701,1.701,1.701,1.697,1.697,1.697,1.693,1.693,1.693,1.693,1.693,1.693,1.697,1.697,1.697,1.697,1.697,1.697,1.701,1.701,1.701,1.701,1.701,1.701,1.701,1.701,1.701,1.701,1.697,1.697,1.697,1.693,1.693,1.693,1.688,1.684,1.684,1.684,1.68,1.68,1.676,1.676,1.676,1.672,1.672,1.672,1.672,1.668,1.668,1.668,1.668,1.668,1.668,1.668,1.668,1.664,1.664,1.664,1.664,1.664,1.66,1.66,1.66,1.66,1.656,1.656,1.656,1.652,1.652,1.656,1.656,1.656,1.656,1.66,1.664,1.672,1.676,1.676,1.68,1.684,1.688,1.688,1.693,1.693,1.693,1.693,1.693,1.697,1.697,1.701,1.701,1.701,1.701,1.701,1.701,1.701,1.701,1.697,1.701,1.701,1.701,1.701,1.701,1.705,1.705,1.701,1.701,1.697,1.693,1.693,1.688,1.684,1.68,1.676,1.672,1.672,1.672,1.668,1.668,1.668,1.664,1.664,1.664,1.664,1.664,1.664,1.664,1.66,1.66,1.66,1.66,1.664,1.668,1.664,1.672,1.676,1.676,1.68,1.684,1.688,1.688,1.697,1.697,1.697,1.697,1.697,1.701,1.697,1.697,1.693,1.693,1.693,1.693,1.693,1.693,1.693,1.697,1.705,1.709,1.709,1.709,1.709,1.709,1.709,1.705,1.701,1.697,1.688,1.68,1.676,1.668,1.66,1.656,1.648,1.644,1.636,1.632,1.628,1.628,1.628,1.632,1.632,1.64,1.652,1.672,1.697,1.722,1.749,1.771,1.799,1.823,1.837,1.847,1.857,1.867,1.867,1.867,1.872,1.872,1.872,1.878,1.878,1.878,1.872,1.862,1.833,0,0,0,0,1.517,1.484,1.472,1.468,1.465,1.456,1.45,1.447,1.444,1.441,1.441,1.441,1.444,1.444,1.462,1.51,1.562,0,0,1.74,1.808,1.862,1.867,1.867,1.867,1.867,1.872,1.872,1.872,1.872,1.872,1.867,1.867,1.867,1.867,1.857,1.842,1.818,0,0,0,0,1.541,0,1.385,1.361,1.337,1.319,1.309,1.302,1.299,1.294,1.292,1.287,1.284,1.282,1.28,1.277,1.273,1.268,1.266,1.263,1.261,1.261
1.672,1.676,1.684,1.688,1.693,1.701,1.705,1.714,1.722,1.727,1.735,1.74,1.74,1.744,1.749,1.749,1.749,1.744,1.744,1.74,1.735,1.731,1.731,1.735,1.731,1.727,1.727,1.722,1.722,1.722,1.722,1.722,1.722,1.727,1.727,1.731,1.74,1.74,1.749,1.749,1.753,1.758,1.753,1.758,1.758,1.758,1.758,1.753,1.753,1.753,1.753,1.753,1.758,1.762,1.762,1.767,1.767,1.771,1.771,1.771,1.776,1.771,1.771,1.771,1.767,1.762,1.753,1.749,1.744,1.735,1.722,1.709,1.693,1.672,1.66,1.644,1.628,1.617,1.602,1.598,1.594,1.591,1.587,1.587,1.58,1.573,1.569,1.562,1.551,1.544,1.537,1.53,1.524,1.517,1.514,1.51,1.507,1.504,1.5,1.5,1.497,1.494,1.491,1.487,1.481,1.475,1.472,1.465,1.462,1.456,1.453,1.447,1.444,1.441,1.438,1.435,1.432,1.429,1.426,1.426,1.426,1.426,1.426,1.426,1.429,1.429,1.429,1.429,1.429,1.426,1.426,1.426,1.423,1.423,1.423,1.423,1.426,1.429,1.432,1.435,1.438,1.438,1.441,1.441,1.441,1.438,1.438,1.438,1.438,1.435,1.435,1.435,1.435,1.432,1.432,1.429,1.429,1.426,1.423,1.423,1.423,1.423,1.423,1.423,1.423,1.426,1.426,1.429,1.432,1.435,1.438,1.444,1.45,1.456,1.465,1.472,1.481,1.487,1.497,1.51,1.524,1.527,1.537,1.548,1.555,1.562,1.562,1.569,1.565,1.569,1.565,1.569,1.565,1.565,1.565,1.565,1.558,1.558,1.558,1.558,1.558,1.558,1.558,1.558,1.562,1.562,1.562,1.562,1.565,1.569,1.569,1.573,1.576,1.58,1.583,1.587,1.594,1.594,1.602,1.606,1.613,1.621,1.625,1.628,1.636,1.644,1.648,1.648,1.652,1.652,1.656,1.656,1.656,1.66,1.664,1.664,1.664,1.668,1.668,1.668,1.672,1.672,1.672,1.676,1.676,1.676,1.676,1.68,1.684,1.684,1.688,1.688,1.693,1.693,1.697,1.701,1.705,1.705,1.709,1.709,1.709,1.714,1.714,1.714,1.714,1.714,1.714,1.714,1.718,1.718,1.718,1.718,1.722,1.722,1.722,1.722,1.722,1.722,1.722,1.722,1.722,1.722,1.722,1.718,1.718,1.718,1.718,1.714,1.714,1.714,1.714,1.714,1.714,1.714,1.714,1.714,1.718,1.718,1.718,1.718,1.718,1.718,1.722,1.722,1.722,1.722,1.722,1.722,1.727,1.727,1.722,1.722,1.718,1.718,1.718,1.714,1.709,1.709,1.705,1.705,1.701,1.697,1.697,1.693,1.688,1.688,1.684,1.688,1.688,1.684,1.684,1.684,1.684,1.684,1.68,1.68,1.676,1.676,1.676,1.672,1.676,1.676,1.672,1.672,1.668,1.668,1.668,1.664,1.664,1.66,1.66,1.66,1.664,1.664,1.668,1.672,1.68,1.688,1.693,1.697,1.701,1.705,1.705,1.709,1.709,1.709,1.709,1.709,1.709,1.709,1.714,1.714,1.714,1.714,1.714,1.709,1.714,1.709,1.709,1.705,1.705,1.705,1.701,1.705,1.705,1.705,1.709,1.709,1.705,1.701,1.701,1.701,1.697,1.693,1.693,1.684,1.684,1.684,1.68,1.68,1.684,1.68,1.684,1.684,1.684,1.684,1.684,1.684,1.684,1.684,1.684,1.684,1.684,1.684,1.688,1.693,1.693,1.697,1.697,1.701,1.701,1.705,1.709,1.714,1.714,1.714,1.714,1.718,1.714,1.714,1.714,1.714,1.709,1.709,1.709,1.714,1.718,1.722,1.727,1.735,1.744,1.749,1.749,1.753,1.753,1.753,1.749,1.744,1.735,1.731,1.718,1.709,1.697,1.688,1.676,1.672,1.66,1.652,1.64,1.636,1.632,1.636,1.636,1.64,1.648,1.66,1.68,1.705,1.731,1.758,1.78,1.808,1.837,1.857,1.867,1.878,1.883,1.888,1.888,1.893,1.893,1.893,1.893,1.893,1.888,1.888,1.878,1.862,1.828,0,0,0,0,1.497,1.472,1.468,1.465,1.459,1.45,1.447,1.444,1.441,1.438,1.441,1.444,1.444,1.468,1.517,1.573,0,0,1.767,1.837,1.898,1.898,1.898,1.898,1.898,1.898,1.898,1.898,1.898,1.893,1.893,1.888,1.888,1.888,1.883,1.872,1.857,1.828,0,0,0,0,1.52,1.38,1.355,1.334,1.316,1.306,1.302,1.299,1.294,1.292,1.284,1.282,1.28,1.277,1.275,1.273,1.27,1.268,1.263,1.263,1.261
1.688,1.693,1.697,1.701,1.709,1.714,1.722,1.731,1.74,1.749,1.758,1.767,1.771,1.776,1.78,1.78,1.785,1.785,1.78,1.78,1.776,1.771,1.771,1.771,1.767,1.767,1.762,1.758,1.762,1.758,1.758,1.758,1.758,1.762,1.762,1.771,1.771,1.776,1.78,1.785,1.785,1.79,1.79,1.785,1.785,1.785,1.785,1.78,1.78,1.78,1.78,1.78,1.78,1.78,1.785,1.785,1.79,1.79,1.794,1.794,1.794,1.794,1.794,1.79,1.79,1.785,1.776,1.771,1.767,1.758,1.744,1.731,1.722,1.701,1.68,1.66,1.644,1.625,1.609,1.598,1.591,1.587,1.587,1.58,1.573,1.565,1.558,1.551,1.541,1.53,1.524,1.514,1.507,1.5,1.497,1.494,1.487,1.487,1.481,1.481,1.478,1.475,1.472,1.468,1.462,1.456,1.45,1.444,1.441,1.435,1.432,1.429,1.426,1.423,1.423,1.42,1.42,1.417,1.417,1.414,1.417,1.417,1.417,1.417,1.42,1.42,1.42,1.42,1.42,1.42,1.417,1.414,1.414,1.414,1.417,1.417,1.417,1.42,1.423,1.426,1.429,1.429,1.429,1.429,1.429,1.429,1.429,1.429,1.426,1.426,1.426,1.423,1.423,1.423,1.42,1.417,1.417,1.414,1.411,1.411,1.408,1.408,1.408,1.408,1.408,1.411,1.411,1.411,1.414,1.417,1.417,1.42,1.426,1.429,1.435,1.444,1.447,1.453,1.462,1.468,1.481,1.487,1.5,1.507,1.514,1.524,1.527,1.53,1.53,1.53,1.534,1.53,1.53,1.53,1.527,1.527,1.524,1.524,1.524,1.524,1.524,1.524,1.524,1.524,1.524,1.527,1.524,1.524,1.527,1.527,1.53,1.534,1.537,1.541,1.544,1.548,1.551,1.555,1.558,1.565,1.573,1.58,1.587,1.598,1.606,1.621,1.628,1.636,1.644,1.652,1.66,1.656,1.656,1.66,1.664,1.668,1.668,1.668,1.668,1.672,1.672,1.676,1.68,1.68,1.684,1.688,1.693,1.693,1.697,1.701,1.705,1.705,1.709,1.714,1.718,1.722,1.727,1.727,1.731,1.731,1.731,1.735,1.735,1.735,1.735,1.735,1.735,1.74,1.74,1.74,1.74,1.744,1.744,1.744,1.749,1.749,1.749,1.749,1.749,1.749,1.744,1.744,1.744,1.744,1.74,1.74,1.74,1.735,1.735,1.735,1.735,1.735,1.735,1.735,1.735,1.74,1.74,1.744,1.744,1.744,1.744,1.749,1.749,1.749,1.749,1.749,1.749,1.749,1.749,1.749,1.749,1.744,1.744,1.744,1.74,1.74,1.74,1.735,1.735,1.731,1.731,1.727,1.722,1.722,1.722,1.722,1.718,1.718,1.718,1.718,1.718,1.718,1.718,1.718,1.714,1.714,1.709,1.709,1.705,1.705,1.705,1.705,1.701,1.697,1.697,1.697,1.693,1.693,1.688,1.684,1.684,1.684,1.684,1.684,1.684,1.688,1.697,1.705,1.709,1.718,1.722,1.722,1.727,1.727,1.727,1.727,1.727,1.722,1.722,1.727,1.727,1.727,1.727,1.722,1.722,1.722,1.718,1.718,1.714,1.709,1.709,1.709,1.709,1.709,1.709,1.709,1.714,1.714,1.714,1.709,1.709,1.709,1.709,1.705,1.705,1.697,1.697,1.697,1.697,1.697,1.701,1.697,1.701,1.701,1.705,1.709,1.709,1.709,1.705,1.705,1.705,1.709,1.709,1.709,1.709,1.714,1.718,1.718,1.718,1.722,1.722,1.727,1.731,1.735,1.731,1.735,1.735,1.735,1.735,1.735,1.731,1.731,1.727,1.731,1.731,1.735,1.744,1.753,1.762,1.771,1.78,0,1.794,1.794,1.794,1.794,1.79,1.785,1.78,1.771,1.762,1.749,1.731,1.722,1.705,1.693,1.68,1.66,1.648,1.64,1.64,1.64,1.64,1.644,1.652,1.664,1.684,1.709,1.735,1.767,1.799,1.828,1.857,1.878,1.888,1.898,1.909,1.909,1.909,1.914,1.914,1.914,1.909,1.909,1.904,1.898,1.893,1.883,1.852,1.794,0,0,0,1.507,1.478,1.468,1.465,1.459,1.45,1.447,1.444,1.441,1.438,1.441,1.444,1.444,1.468,1.517,1.587,0,1.714,1.79,1.862,1.936,1.936,1.93,1.93,1.93,1.93,1.93,1.93,1.925,1.925,1.925,1.92,1.914,1.914,1.909,1.904,1.893,1.872,1.852,0,0,0,0,0,0,0,1.314,1.304,1.302,1.299,1.294,1.292,1.284,1.282,1.28,1.277,1.275,1.273,1.27,1.268,1.263,1.263,1.261
1.709,1.714,1.718,1.722,1.727,1.731,1.74,1.749,1.758,1.767,1.776,1.785,1.79,1.799,1.804,1.808,1.813,1.808,1.813,1.808,1.808,1.808,1.804,1.804,1.804,1.799,1.799,1.799,1.799,1.794,1.794,1.794,1.794,1.794,1.799,1.804,1.804,1.808,1.813,1.813,1.813,1.813,1.813,1.813,1.813,1.813,1.813,1.808,1.804,1.804,1.804,1.804,1.804,1.804,1.804,1.804,1.808,1.808,1.808,1.808,1.808,1.808,1.808,1.804,1.804,1.799,1.799,1.794,1.785,1.776,1.767,1.758,1.744,1.727,1.701,1.68,1.656,1.632,1.613,1.594,1.587,1.58,1.576,1.569,1.562,1.551,1.544,1.534,1.527,1.517,1.507,1.497,1.487,1.481,1.478,1.475,1.468,1.465,1.462,1.462,1.459,1.456,1.453,1.447,1.444,1.438,1.435,1.429,1.423,1.42,1.417,1.417,1.414,1.411,1.411,1.408,1.408,1.405,1.408,1.408,1.408,1.408,1.408,1.411,1.411,1.411,1.411,1.414,1.411,1.411,1.411,1.411,1.408,1.408,1.408,1.411,1.411,1.411,1.414,1.417,1.42,1.42,1.42,1.42,1.42,1.42,1.42,1.42,1.417,1.417,1.414,1.414,1.411,1.411,1.408,1.405,1.405,1.402,1.402,1.4,1.397,1.397,1.397,1.397,1.397,1.397,1.397,1.397,1.4,1.4,1.402,1.405,1.408,1.411,1.414,1.414,1.42,1.423,1.426,1.438,0,1.453,1.462,1.472,1.478,1.487,1.491,1.494,1.494,1.494,1.494,1.491,1.491,1.491,1.491,1.487,1.484,1.484,1.484,1.484,1.484,1.484,1.484,1.484,1.484,1.484,1.484,1.484,1.484,1.487,1.491,1.491,1.494,1.497,1.5,1.504,1.507,1.51,1.517,1.524,1.53,1.534,1.544,1.555,1.565,1.58,1.594,1.606,1.617,1.628,1.64,1.648,1.652,1.664,1.664,1.664,1.668,1.668,1.668,1.672,1.676,1.68,1.684,1.688,1.693,1.697,1.701,1.705,1.709,1.714,1.718,1.722,1.722,1.731,1.735,1.74,1.744,1.749,1.749,1.753,1.758,1.758,1.758,1.758,1.762,1.762,1.762,1.762,1.762,1.762,1.767,1.767,1.767,1.771,1.771,1.771,1.776,1.776,1.776,1.776,1.776,1.771,1.771,1.767,1.767,1.767,1.767,1.762,1.762,1.762,1.762,1.762,1.762,1.762,1.762,1.767,1.767,1.767,1.771,1.771,1.771,1.776,1.776,1.776,1.776,1.776,1.776,1.776,1.776,1.776,1.771,1.771,1.771,1.771,1.771,1.771,1.767,1.767,1.767,1.762,1.762,1.758,1.758,1.753,1.753,1.753,1.753,1.753,1.753,1.753,1.753,1.753,1.753,1.749,1.749,1.744,1.744,1.74,1.735,1.735,1.735,1.735,1.731,1.731,1.727,1.727,1.722,1.718,1.718,1.714,1.709,1.709,1.709,1.714,1.714,1.718,1.727,1.735,1.74,1.744,1.744,1.744,1.744,1.744,1.744,1.74,1.74,1.735,1.74,1.74,1.74,1.74,1.74,1.735,1.735,1.731,1.731,1.722,1.722,1.722,1.722,1.718,1.718,1.718,1.718,1.718,1.722,1.722,1.722,1.718,1.718,1.722,1.722,1.718,1.718,1.718,1.718,1.718,1.718,1.718,1.722,1.722,1.727,1.727,1.731,1.735,1.731,1.731,1.731,1.731,1.731,1.735,1.735,1.731,1.735,1.735,1.74,1.744,1.744,1.749,1.749,1.753,1.758,1.758,1.758,1.758,1.758,1.758,1.753,1.753,1.753,1.749,1.749,1.753,1.753,1.762,1.771,1.785,1.799,1.808,1.823,1.833,1.842,1.847,1.847,1.847,1.842,1.837,1.833,1.823,1.813,1.794,1.776,1.758,1.74,1.714,1.697,1.676,1.66,1.648,1.644,1.644,1.644,1.648,1.656,1.668,1.688,1.718,1.749,1.78,1.813,1.847,1.883,1.898,1.914,1.92,1.93,1.936,1.93,1.93,1.93,1.93,1.93,1.925,1.914,1.909,1.909,1.898,1.878,0,0,0,1.58,1.517,1.478,1.472,1.465,1.459,1.453,1.45,1.447,1.441,1.441,1.441,1.444,1.444,1.468,1.517,1.58,0,1.74,1.818,1.898,1.963,1.963,1.963,1.963,1.963,1.963,1.963,1.958,1.958,1.958,1.952,1.947,1.947,1.941,1.941,1.936,1.936,1.92,1.914,1.904,0,0,0,0,0,0,0,1.304,1.302,1.299,1.294,1.294,1.287,1.282,1.282,1.28,1.277,1.273,1.27,1.268,1.266,1.263,1.263
1.74,1.74,1.744,1.744,1.749,1.753,1.762,1.771,1.78,1.79,1.799,1.808,1.813,1.823,1.828,1.833,1.833,1.833,1.833,1.833,1.833,1.833,1.833,1.833,1.833,1.828,1.828,1.828,1.828,1.828,1.828,1.828,1.828,1.833,1.833,1.837,1.842,1.842,1.847,1.847,1.847,1.847,1.847,1.847,1.842,1.842,1.837,1.833,1.833,1.828,1.828,1.823,1.823,1.823,1.818,1.823,1.823,1.818,1.823,1.823,1.823,1.823,1.818,1.818,1.813,1.813,1.808,1.804,1.804,1.79,1.785,1.771,1.758,1.735,1.709,1.68,1.652,1.625,1.602,1.583,1.573,1.569,1.562,1.555,1.548,1.537,1.53,1.52,1.51,1.497,1.487,1.478,1.468,1.462,1.459,1.453,1.45,1.45,1.444,1.444,1.441,1.438,1.435,1.429,1.426,1.423,1.42,1.414,1.411,1.408,1.408,1.405,1.402,1.402,1.402,1.4,1.4,1.4,1.4,1.4,1.4,1.402,1.402,1.402,1.402,1.402,1.402,1.405,1.405,1.405,1.405,1.402,1.402,1.402,1.405,1.405,1.405,1.405,1.408,1.408,1.411,1.411,1.414,1.414,1.414,1.411,1.411,1.411,1.408,1.408,1.405,1.402,1.402,1.4,1.397,1.394,1.394,1.391,1.391,1.388,1.388,1.385,1.385,1.385,1.388,1.385,1.385,1.385,1.388,1.388,1.388,1.388,1.391,1.391,1.394,1.397,1.397,1.397,1.402,1.408,1.414,1.42,1.429,0,1.441,1.447,1.456,1.459,1.459,1.456,1.456,0,1.453,1.453,1.45,1.447,1.447,1.447,1.444,1.444,1.444,1.444,1.444,1.444,1.444,1.444,1.444,1.444,1.447,1.447,1.447,1.45,1.453,1.456,1.459,1.462,1.465,1.468,1.475,1.481,1.491,1.494,1.504,1.51,1.52,1.53,1.548,1.555,1.565,1.573,1.587,1.594,1.598,1.609,1.617,1.628,1.636,1.644,1.652,1.664,1.668,1.68,1.688,1.693,1.697,1.701,1.705,1.709,1.718,1.722,1.727,1.735,1.74,1.744,1.749,1.753,1.762,1.767,1.771,1.771,1.776,1.78,1.78,1.78,1.785,1.785,1.785,1.785,1.785,1.79,1.79,1.79,1.79,1.794,1.794,1.794,1.794,1.794,1.794,1.794,1.794,1.794,1.794,1.79,1.79,1.79,1.785,1.785,1.785,1.785,1.785,1.785,1.785,1.79,1.79,1.79,1.79,1.794,1.794,1.794,1.794,1.799,1.799,1.799,1.799,1.804,1.804,1.804,1.804,1.804,1.804,1.804,1.804,1.804,1.799,1.799,1.799,1.799,1.799,1.794,1.794,1.79,1.79,1.79,1.785,1.785,1.785,1.785,1.785,1.78,1.78,1.78,1.776,1.776,1.771,1.771,1.767,1.767,1.767,1.767,1.767,1.762,1.762,1.762,1.762,1.762,1.758,1.758,1.753,1.753,1.749,1.749,1.749,1.749,1.749,1.753,1.762,1.767,1.767,1.767,1.767,1.767,1.767,1.762,1.762,1.762,1.758,1.758,1.758,1.758,1.758,1.758,1.758,1.753,1.753,1.753,1.749,1.744,1.744,1.74,1.74,1.735,1.735,1.735,1.731,1.731,1.735,1.735,1.735,1.735,1.735,1.735,1.735,1.735,1.74,1.735,1.74,1.74,1.744,1.744,1.749,1.749,1.753,1.758,1.758,1.758,1.758,1.758,1.762,1.758,1.758,1.758,1.758,1.758,1.762,1.762,1.767,1.771,1.776,1.78,1.776,1.785,1.79,1.79,1.785,1.785,1.785,1.78,1.776,1.776,1.771,1.767,1.767,1.771,1.776,1.785,1.799,1.813,1.833,1.847,1.867,1.883,1.893,1.904,1.904,1.904,1.898,1.898,1.893,1.883,1.867,1.852,1.828,1.799,1.771,1.744,1.718,1.693,1.668,1.656,1.648,1.648,1.648,1.648,1.656,1.672,1.697,1.727,1.762,1.799,1.833,1.872,1.909,1.925,1.941,1.947,1.952,1.958,1.958,1.952,1.952,1.952,1.947,1.936,1.93,1.925,1.92,1.914,1.888,1.837,0,0,0,0,1.478,1.472,1.465,1.456,1.453,1.45,1.447,1.441,1.441,1.441,1.444,1.444,1.468,1.514,1.562,0,1.767,1.847,1.93,1.992,1.998,1.998,1.998,1.998,1.992,1.992,1.992,1.986,1.986,1.98,1.98,1.975,1.969,1.969,1.969,1.969,1.969,1.963,1.963,1.963,0,0,0,0,0,0,0,1.299,1.297,1.297,1.294,1.287,1.284,1.282,1.28,1.277,1.275,1.27,1.268,1.266,1.263,1.263
1.762,1.762,1.767,1.767,1.771,1.776,1.785,1.79,1.799,1.808,1.818,1.823,1.833,1.837,1.842,1.847,1.847,1.852,1.852,1.852,1.852,1.852,1.852,1.852,1.852,1.852,1.852,1.852,1.857,1.857,1.862,1.862,1.862,1.867,1.867,1.867,1.872,1.872,1.878,1.878,1.878,1.878,1.872,1.872,1.867,1.867,1.862,1.857,1.852,1.847,1.847,1.842,1.837,1.837,1.833,1.833,1.833,1.833,1.833,1.833,1.828,1.828,1.828,1.823,1.823,1.823,1.818,1.818,1.813,1.804,1.794,1.785,1.767,1.735,1.714,1.68,1.648,1.621,1.594,1.573,1.558,1.551,1.548,1.537,1.53,1.52,1.514,1.504,1.491,1.478,1.468,1.459,1.45,1.444,1.438,1.435,1.432,1.432,1.426,1.426,1.423,1.42,1.417,1.414,1.411,1.408,1.405,1.402,1.4,1.397,1.397,1.394,1.394,1.394,1.391,1.391,1.391,1.391,1.391,1.394,1.394,1.394,1.394,1.397,1.397,1.397,1.397,1.397,1.397,1.397,1.397,1.397,1.397,1.4,1.4,1.4,1.4,1.4,1.402,1.402,1.405,1.405,1.405,1.405,1.405,1.402,1.402,1.402,1.4,1.4,1.397,1.394,1.394,1.388,1.388,1.385,1.383,1.38,1.377,1.377,1.377,1.377,1.377,1.377,1.377,1.377,1.377,1.377,1.377,1.377,1.377,1.377,1.377,1.377,1.377,1.38,1.377,1.377,1.383,1.385,1.388,1.394,1.397,1.405,1.405,1.414,1.42,1.423,1.423,1.42,1.42,1.417,1.414,1.414,1.411,1.408,1.408,1.408,1.408,1.408,1.408,1.408,1.408,1.408,1.405,1.408,1.405,1.408,1.408,1.408,1.411,1.411,1.414,1.417,1.423,1.426,1.426,1.429,1.435,1.441,1.45,1.456,1.462,1.468,1.478,1.487,1.5,1.507,1.517,1.524,1.534,1.541,1.544,1.555,1.562,1.569,1.576,1.587,1.598,1.613,1.632,1.648,1.66,1.672,1.688,1.701,1.709,1.718,1.722,1.731,1.735,1.74,1.744,1.753,1.762,1.767,1.771,1.776,1.78,1.79,1.794,1.794,1.799,1.799,1.804,1.804,1.808,1.808,1.808,1.808,1.813,1.813,1.813,1.813,1.818,1.818,1.818,1.818,1.818,1.818,1.818,1.818,1.813,1.813,1.813,1.808,1.808,1.808,1.804,1.804,1.804,1.808,1.808,1.808,1.808,1.813,1.813,1.813,1.818,1.818,1.818,1.818,1.818,1.823,1.823,1.823,1.823,1.823,1.828,1.828,1.828,1.828,1.828,1.828,1.828,1.828,1.833,1.828,1.828,1.823,1.823,1.823,1.818,1.818,1.818,1.818,1.813,1.813,1.813,1.813,1.813,1.808,1.808,1.804,1.804,1.804,1.799,1.799,1.799,1.799,1.799,1.799,1.799,1.799,1.799,1.799,1.794,1.794,1.79,1.79,1.785,1.785,1.785,1.785,1.785,1.785,1.79,1.79,1.79,1.79,1.785,1.785,1.785,1.78,1.78,1.78,1.776,1.776,1.776,1.776,1.776,1.776,1.776,1.776,1.776,1.771,1.771,1.767,1.767,1.762,1.762,1.758,1.758,1.753,1.753,1.753,1.753,1.753,1.749,1.749,1.749,1.753,1.753,1.753,1.758,1.762,1.762,1.767,1.767,1.771,1.776,1.776,1.78,1.78,1.785,1.785,1.785,1.785,1.785,1.785,1.785,1.785,1.785,1.79,1.794,1.799,1.804,1.804,1.808,1.813,1.813,1.823,1.823,1.823,1.818,1.813,1.813,1.808,1.804,1.794,1.79,1.785,1.785,1.79,1.799,1.808,1.828,1.847,1.872,1.893,1.914,1.936,1.947,1.958,1.958,1.958,1.952,1.947,1.941,1.93,1.92,1.898,1.872,1.837,1.804,1.771,1.735,1.705,1.68,1.66,1.652,1.652,1.652,1.652,1.66,1.676,1.705,1.74,1.776,1.818,1.852,1.893,1.936,1.952,1.969,1.975,1.98,1.98,1.98,1.975,1.975,1.969,1.963,1.952,1.947,1.936,1.93,1.925,1.888,1.837,0,0,0,1.52,1.478,1.472,1.465,1.459,1.453,1.447,1.444,1.441,1.441,1.441,1.444,1.444,1.472,1.51,1.555,0,1.79,1.883,1.969,2.027,2.027,2.027,2.027,2.027,2.027,2.027,2.021,2.015,2.015,2.015,2.009,2.003,1.998,1.998,1.992,1.992,1.992,1.986,1.986,1.986,1.986,0,0,0,0,0,0,1.302,1.299,0,0,1.289,1.287,1.284,1.282,1.277,1.275,1.273,1.268,1.266,1.266,1.263
1.79,1.79,1.79,1.794,1.794,1.799,1.804,1.808,1.818,1.828,1.837,1.842,1.847,1.857,1.857,1.862,1.862,1.867,1.867,1.867,1.867,1.867,1.867,1.867,1.872,1.872,1.872,1.878,1.878,1.883,1.883,1.888,1.893,1.893,1.898,1.898,1.898,1.904,1.904,1.904,1.898,1.898,1.898,1.893,1.888,1.883,1.878,1.878,1.872,1.867,1.857,1.857,1.852,1.847,1.847,1.842,1.842,1.837,1.837,1.837,1.833,1.828,1.828,1.823,1.823,1.823,1.823,1.818,1.813,1.804,1.799,1.785,1.771,1.74,1.714,1.676,1.64,1.609,1.583,1.558,1.544,1.537,1.53,1.524,1.514,1.504,1.497,1.484,1.475,1.462,1.45,1.441,1.435,1.429,1.426,1.423,1.42,1.42,1.417,1.414,1.411,1.408,1.408,1.405,1.402,1.4,1.397,1.394,1.391,1.388,1.388,1.388,1.385,1.385,1.385,1.385,1.385,1.385,1.385,1.385,1.388,1.388,1.388,1.388,1.388,1.388,1.391,1.391,1.391,1.391,1.391,1.394,1.394,1.394,1.394,1.394,1.394,1.397,1.397,1.397,1.397,1.397,1.4,1.4,1.4,1.397,1.397,1.394,1.391,1.391,1.388,1.385,1.383,1.383,1.377,1.374,1.372,1.369,1.369,1.366,1.366,1.366,1.366,1.366,1.369,1.369,1.369,1.369,1.366,1.366,1.366,1.366,1.366,1.363,1.363,1.363,1.361,1.361,1.361,1.363,1.366,1.369,1.372,1.374,1.374,1.38,1.383,1.385,1.383,1.383,1.38,1.377,1.377,1.377,1.374,1.372,1.372,1.369,1.369,1.372,1.372,1.372,1.369,1.369,1.369,1.372,1.369,1.369,1.369,1.372,1.372,1.374,1.377,1.38,1.383,1.385,1.388,1.391,1.397,1.402,1.408,1.417,1.423,1.429,1.438,1.447,0,0,0,1.475,1.484,1.484,1.491,1.5,1.507,1.514,1.52,1.527,1.537,1.551,1.569,1.583,1.598,1.613,1.636,1.652,1.676,1.688,1.705,1.718,1.731,1.744,1.753,1.762,1.767,1.776,1.78,1.785,1.794,1.799,1.804,1.808,1.813,1.818,1.823,1.823,1.828,1.828,1.828,1.828,1.833,1.837,1.837,1.837,1.837,1.842,1.842,1.842,1.842,1.842,1.837,1.837,1.833,1.833,1.833,1.833,1.828,1.828,1.828,1.828,1.828,1.828,1.828,1.833,1.833,1.833,1.833,1.837,1.837,1.837,1.837,1.842,1.842,1.842,1.847,1.847,1.847,1.847,1.847,1.847,1.847,1.847,1.847,1.852,1.852,1.852,1.857,1.852,1.852,1.852,1.852,1.852,1.852,1.852,1.847,1.847,1.847,1.847,1.842,1.842,1.842,1.842,1.842,1.837,1.837,1.837,1.833,1.837,1.837,1.837,1.837,1.837,1.837,1.837,1.837,1.837,1.833,1.833,1.828,1.828,1.823,1.823,1.818,1.818,1.818,1.818,1.813,1.813,1.813,1.808,1.808,1.804,1.804,1.804,1.799,1.799,1.799,1.799,1.799,1.794,1.799,1.799,1.799,1.799,1.799,1.794,1.794,1.79,1.79,1.79,1.785,1.785,1.78,1.78,1.776,1.771,1.771,1.771,1.771,1.767,1.767,1.771,1.771,1.776,1.78,1.785,1.785,1.79,1.794,1.794,1.799,1.804,1.804,1.804,1.804,1.808,1.808,1.808,1.808,1.808,1.808,1.808,1.808,1.813,1.818,1.828,1.833,1.837,1.837,1.847,1.852,1.852,1.852,1.852,1.847,1.842,1.837,1.828,1.823,1.818,1.808,1.804,1.804,1.808,1.818,1.833,1.857,1.883,1.909,1.93,1.958,1.98,1.992,2.003,2.003,2.003,1.992,1.986,1.98,1.969,1.958,1.941,1.909,1.872,1.828,1.794,1.753,1.718,1.684,1.66,1.656,1.652,1.652,1.652,1.66,1.68,1.709,1.749,1.79,1.833,1.872,1.92,1.963,1.986,1.998,1.998,2.009,2.003,2.003,1.998,1.998,1.992,1.98,1.975,1.958,1.947,1.941,1.925,1.878,1.818,1.727,0,0,0,1.481,1.472,1.465,1.459,1.453,1.45,1.444,1.441,1.441,1.444,1.444,1.447,1.472,1.507,1.544,0,2.021,2.027,2.045,2.057,2.057,2.057,2.057,2.057,2.057,2.051,2.051,2.051,2.045,2.039,2.039,2.033,2.027,2.021,2.021,2.015,2.015,2.009,2.009,2.009,2.009,0,0,0,0,0,0,1.299,1.299,0,0,1.289,1.287,1.284,1.282,1.28,1.275,1.273,1.268,1.266,1.266,1.263
1.818,1.818,1.818,1.818,1.818,1.823,1.828,1.833,1.837,1.847,1.852,1.857,1.862,1.867,1.872,1.878,1.878,1.883,1.883,1.883,1.883,1.888,1.888,1.888,1.888,1.893,1.893,1.898,1.904,1.904,1.909,1.909,1.914,1.914,1.92,1.92,1.925,1.925,1.925,1.925,1.92,1.92,1.92,1.914,1.909,1.904,1.898,1.893,1.888,1.883,1.878,1.867,1.867,1.857,1.857,1.847,1.847,1.842,1.837,1.833,1.828,1.823,1.823,1.818,1.818,1.818,1.818,1.818,1.808,1.808,1.799,1.785,1.758,1.731,1.693,1.652,0,0,1.558,1.537,1.524,1.517,1.51,1.504,1.494,1.484,1.478,1.468,1.456,1.447,1.438,1.432,1.426,1.42,1.417,1.414,1.414,1.411,1.408,1.408,1.405,1.402,1.4,1.397,1.394,1.391,1.388,1.388,1.385,1.383,1.383,1.38,1.38,1.38,1.38,1.38,1.377,1.38,1.38,1.38,1.38,1.38,1.383,1.383,1.383,1.383,1.383,1.383,1.385,1.385,1.388,1.388,1.388,1.388,1.391,1.391,1.391,1.391,1.391,1.391,1.394,1.394,1.394,1.394,1.394,1.391,1.391,1.388,1.385,1.385,1.38,1.377,1.377,1.372,1.369,1.366,1.363,1.361,1.361,1.358,1.358,1.358,1.358,1.358,1.358,1.361,1.361,1.361,1.361,1.358,1.358,1.355,1.353,1.353,1.353,1.35,1.347,1.347,1.347,1.345,1.345,1.345,1.345,1.345,1.345,1.35,1.35,1.35,1.35,1.347,1.345,1.345,1.34,1.34,1.337,1.334,1.334,1.334,1.334,1.334,1.334,1.334,1.334,1.334,1.332,1.334,1.332,1.332,1.334,1.334,1.334,1.337,1.34,1.342,1.345,1.347,1.35,1.353,1.358,1.363,1.369,1.377,1.383,1.388,1.397,1.402,1.411,1.414,1.42,0,0,0,0,0,0,0,0,1.472,1.481,1.487,1.504,1.524,1.537,1.551,1.569,1.587,1.606,1.621,1.64,1.66,1.684,1.705,1.722,1.74,1.753,1.771,1.785,1.794,1.799,1.808,1.813,1.818,1.823,1.833,1.837,1.837,1.842,1.847,1.852,1.852,1.857,1.857,1.862,1.862,1.862,1.862,1.862,1.862,1.867,1.862,1.862,1.857,1.857,1.857,1.857,1.852,1.852,1.852,1.852,1.847,1.847,1.847,1.852,1.852,1.852,1.852,1.857,1.857,1.857,1.862,1.862,1.867,1.867,1.867,1.867,1.867,1.867,1.867,1.867,1.867,1.867,1.867,1.872,1.878,1.878,1.878,1.883,1.883,1.883,1.883,1.883,1.883,1.883,1.883,1.883,1.883,1.883,1.883,1.878,1.878,1.878,1.878,1.878,1.878,1.878,1.878,1.878,1.878,1.883,1.883,1.883,1.878,1.878,1.878,1.872,1.872,1.867,1.867,1.862,1.857,1.857,1.857,1.852,1.847,1.842,1.842,1.837,1.833,1.833,1.833,1.828,1.828,1.828,1.823,1.823,1.823,1.823,1.823,1.823,1.823,1.823,1.823,1.823,1.823,1.823,1.818,1.818,1.818,1.818,1.813,1.813,1.808,1.808,1.804,1.799,1.799,1.799,1.794,1.794,1.794,1.794,1.794,1.799,1.804,1.804,1.808,1.808,1.813,1.818,1.818,1.823,1.823,1.823,1.823,1.828,1.828,1.828,1.823,1.828,1.828,1.828,1.828,1.833,1.837,1.842,1.847,1.852,1.857,1.862,1.867,1.872,1.878,1.872,1.872,1.862,1.857,1.852,1.842,1.837,1.828,1.823,1.818,1.818,1.828,1.842,1.857,1.883,1.909,1.941,1.963,1.986,2.009,2.021,2.033,2.033,2.027,2.021,2.015,2.009,2.003,1.986,1.969,1.947,1.904,1.857,0,1.771,1.731,1.693,1.664,1.656,1.652,1.652,1.656,1.664,1.688,1.722,1.762,1.808,1.852,1.893,1.947,1.998,2.015,2.021,2.027,2.033,2.027,2.027,2.021,2.021,2.015,2.003,1.986,1.98,1.963,1.947,1.92,1.852,1.785,0,0,0,0,1.478,1.472,1.465,1.459,1.453,1.45,1.444,1.444,1.441,1.444,1.444,1.447,1.468,1.497,0,0,2.076,2.082,2.076,2.082,2.082,2.089,2.089,2.089,2.089,2.082,2.082,2.076,2.076,2.076,2.064,2.064,2.051,2.051,2.045,2.039,2.033,2.027,2.027,2.021,2.021,0,0,0,0,0,0,0,1.297,1.294,1.292,1.292,1.287,1.284,1.282,1.277,1.275,1.273,1.268,1.263,1.263,1.263
1.847,1.847,1.842,1.842,1.842,1.847,1.852,1.857,1.862,1.867,1.872,1.878,1.883,1.888,1.893,1.893,1.893,1.893,1.898,1.898,1.904,1.904,1.904,1.909,1.909,1.914,1.914,1.92,1.925,1.925,1.93,1.93,1.936,1.936,1.936,1.941,1.941,1.941,1.941,1.941,1.941,1.941,1.936,1.93,1.93,1.925,1.92,1.909,1.904,1.893,1.888,1.883,1.872,1.867,1.862,1.852,1.847,1.842,1.833,1.828,1.823,1.818,1.813,1.813,1.813,1.813,1.808,1.804,1.794,1.785,1.771,1.744,1.718,1.684,1.648,1.613,1.58,1.555,1.53,1.51,1.5,1.494,1.487,1.481,1.472,1.465,1.459,1.45,1.444,1.432,1.426,1.42,1.414,1.411,1.411,1.408,1.405,1.405,1.402,1.4,1.4,1.397,1.394,1.391,1.388,1.385,1.385,1.383,1.38,1.377,1.377,1.374,1.374,1.372,1.374,1.374,1.374,1.374,1.374,1.374,1.374,1.374,1.374,1.374,1.377,1.374,1.377,1.377,1.377,1.38,1.383,1.383,1.385,1.383,1.385,1.385,1.388,1.388,1.388,1.391,1.391,1.391,1.391,1.388,1.388,1.388,1.385,1.383,1.38,1.377,1.374,1.372,1.369,1.366,1.361,1.358,1.355,1.353,1.353,1.35,1.35,1.35,1.353,1.353,1.353,1.355,1.353,1.353,1.353,1.353,1.35,1.35,1.347,1.345,1.342,1.34,1.337,1.337,1.334,1.334,1.332,1.332,1.332,1.332,1.332,1.332,1.332,1.329,1.329,1.327,1.324,1.322,1.319,1.319,1.316,1.314,1.314,1.314,1.314,1.316,1.316,1.316,1.314,1.314,1.311,1.311,1.311,1.311,1.311,1.314,1.316,1.316,1.319,1.322,1.324,1.327,1.329,1.332,1.334,1.34,1.345,1.347,1.35,1.353,1.358,1.363,1.369,1.372,1.374,1.374,1.383,1.385,1.385,1.394,1.4,1.402,1.408,0,0,0,0,0,0,0,1.507,1.52,1.537,1.555,1.573,1.591,1.609,1.628,1.648,1.68,1.705,1.744,1.794,1.799,1.808,1.818,1.823,1.833,1.837,1.847,1.852,1.857,1.862,1.867,1.872,1.872,1.878,1.883,1.883,1.888,1.888,1.888,1.888,1.888,1.893,1.888,1.888,1.883,1.883,1.883,1.878,1.878,1.878,1.878,1.878,1.878,1.878,1.878,1.878,1.878,1.878,1.883,1.883,1.883,1.888,1.888,1.888,1.893,1.893,1.893,1.893,1.893,1.893,1.893,1.893,1.893,1.893,1.898,1.898,1.904,1.904,1.909,1.909,1.914,1.914,1.914,1.914,1.92,1.92,1.92,1.92,1.92,1.92,1.92,1.914,1.914,1.914,1.914,1.92,1.92,1.92,1.92,1.925,1.925,1.925,1.925,1.92,1.92,1.92,1.914,1.914,1.909,1.904,1.904,1.904,1.898,1.898,1.893,1.883,1.883,1.878,1.872,1.867,1.857,1.852,1.857,1.852,1.852,1.847,1.847,1.847,1.847,1.847,1.847,1.847,1.847,1.847,1.847,1.847,1.847,1.847,1.847,1.847,1.847,1.842,1.842,1.837,1.833,1.833,1.828,1.823,1.818,1.818,1.818,1.818,1.818,1.818,1.823,1.823,1.828,1.833,1.833,1.837,1.842,1.842,1.847,1.847,1.847,1.847,1.852,1.852,1.852,1.847,1.847,1.852,1.852,1.852,1.852,1.857,1.862,1.867,1.867,1.872,1.878,1.883,1.888,1.893,1.893,1.893,1.888,1.878,1.872,1.867,1.857,1.847,1.837,1.833,1.828,1.828,1.842,1.852,1.878,1.904,1.936,1.963,1.992,2.015,2.039,2.051,2.064,2.064,2.057,2.051,2.051,2.039,2.027,2.015,1.992,1.963,1.92,1.867,1.818,1.771,1.731,1.697,1.664,1.66,1.656,1.652,1.656,1.668,1.697,1.735,1.776,1.823,1.872,1.92,1.975,2.027,2.039,2.051,2.051,2.057,2.051,2.051,2.045,2.039,2.033,2.021,2.009,1.992,1.98,1.958,1.914,1.842,0,0,0,1.548,0,1.478,1.472,1.465,1.456,1.453,1.45,1.447,1.444,1.441,1.444,1.444,1.447,1.462,1.484,0,0,2.102,2.108,2.108,2.108,2.108,2.114,2.121,2.121,2.121,2.114,2.114,2.108,2.108,2.102,2.095,2.089,2.082,2.076,2.07,2.064,2.057,2.051,2.051,2.045,2.039,0,0,0,0,0,0,0,1.297,1.294,1.292,1.289,1.287,1.284,1.28,1.277,1.275,1.273,1.268,1.263,1.263,1.261
1.883,1.878,1.878,1.878,1.878,1.878,1.878,1.883,1.888,1.888,1.893,1.898,1.904,1.904,1.909,1.909,1.909,1.909,1.914,1.914,1.92,1.92,1.925,1.925,1.93,1.93,1.936,1.936,1.941,1.941,1.947,1.952,1.952,1.952,1.958,1.958,1.958,1.958,1.958,1.952,1.952,1.952,1.947,1.947,1.941,1.936,1.93,1.92,1.914,1.909,1.898,1.888,1.883,1.872,1.867,1.852,1.847,1.842,1.833,1.823,1.818,1.808,1.808,1.799,1.794,1.785,1.78,1.767,1.753,1.735,1.718,1.688,1.664,1.632,1.602,1.569,1.541,1.52,1.5,1.487,1.478,1.472,1.465,1.459,1.453,1.447,1.444,1.435,1.429,1.42,1.417,1.411,1.408,1.405,1.405,1.402,1.4,1.4,1.397,1.397,1.394,1.391,1.388,1.385,1.383,1.383,1.38,1.38,1.374,1.374,1.372,1.372,1.372,1.369,1.369,1.369,1.369,1.369,1.369,1.369,1.369,1.369,1.369,1.369,1.369,1.369,1.369,1.372,1.372,1.374,1.377,1.377,1.38,1.38,1.383,1.383,1.385,1.385,1.385,1.385,1.385,1.385,1.385,1.385,1.385,1.383,1.383,1.377,1.374,1.372,1.369,1.366,1.361,1.358,1.355,1.35,1.347,1.347,1.345,1.345,1.345,1.345,1.345,1.347,1.347,1.347,1.347,1.347,1.347,1.347,1.345,1.342,1.342,1.34,1.337,1.334,1.332,1.329,1.329,1.327,1.327,1.324,1.324,1.324,1.324,1.322,1.322,1.322,1.316,1.314,1.311,1.309,1.306,1.304,1.304,1.302,1.302,1.302,1.302,1.302,1.302,1.302,1.302,1.299,1.299,1.299,1.299,1.299,1.299,1.302,1.302,1.304,1.304,1.306,1.309,1.311,1.314,1.316,1.322,1.322,1.327,1.329,1.332,1.334,1.337,1.342,1.347,1.347,1.35,1.35,1.353,1.355,1.361,1.361,1.366,1.366,1.369,1.374,1.38,1.383,1.394,1.405,0,0,0,0,0,1.491,1.507,0,1.541,1.555,0,1.602,1.632,1.697,1.735,1.749,1.818,1.823,1.833,1.842,1.847,1.852,1.862,1.867,1.878,1.883,1.888,1.893,1.898,1.904,1.909,1.909,1.914,1.914,1.914,1.914,1.914,1.914,1.914,1.909,1.909,1.909,1.909,1.909,1.904,1.904,1.904,1.904,1.904,1.909,1.909,1.909,1.914,1.914,1.914,1.914,1.92,1.92,1.92,1.92,1.92,1.92,1.92,1.92,1.92,1.925,1.925,1.925,1.925,1.925,1.925,1.93,1.93,1.936,1.936,1.941,1.947,1.947,1.947,1.952,1.947,1.947,1.952,1.952,1.952,1.952,1.952,1.952,1.952,1.952,1.952,1.952,1.958,1.958,1.963,1.963,1.963,1.963,1.958,1.958,1.958,1.952,1.952,1.947,1.941,1.941,1.936,1.93,1.93,1.925,1.92,1.909,1.904,1.893,1.888,1.883,1.878,1.878,1.872,1.872,1.872,1.872,1.872,1.872,1.872,1.872,1.872,1.872,1.878,1.878,1.878,1.878,1.878,1.878,1.878,1.872,1.872,1.872,1.867,1.867,1.862,1.857,1.852,1.847,1.847,1.847,1.842,1.847,1.847,1.852,1.852,1.857,1.862,1.867,1.867,1.867,1.872,1.872,1.872,1.872,1.872,1.872,1.878,1.878,1.878,1.872,1.872,1.872,1.872,1.878,1.878,1.883,1.888,1.893,1.893,1.898,1.904,1.909,1.914,1.909,1.904,1.898,1.888,1.883,1.878,1.867,1.857,1.847,1.842,1.837,1.842,1.852,1.867,1.893,1.92,1.952,1.986,2.015,2.045,2.07,2.082,2.089,2.089,2.089,2.082,2.076,2.064,2.057,2.039,2.015,1.98,1.93,1.872,1.823,1.771,1.727,1.697,1.668,1.66,1.656,1.656,1.656,1.676,1.709,1.744,1.79,1.837,1.888,1.941,1.998,2.051,2.064,2.076,2.076,2.076,2.076,2.07,2.064,2.057,2.051,2.039,2.021,2.009,1.998,1.969,1.909,1.813,0,0,0,1.53,1.497,1.478,1.472,1.462,1.459,1.453,1.453,1.45,1.447,1.444,1.444,1.447,1.447,1.456,1.468,0,2.121,2.121,2.128,2.134,2.141,2.141,2.141,2.147,2.147,2.147,2.141,2.141,2.141,2.134,2.134,2.128,2.121,2.114,2.108,2.102,2.095,2.082,2.076,2.07,2.064,2.064,0,0,0,0,0,0,0,1.294,1.292,1.289,1.287,1.284,1.282,1.28,1.275,1.273,1.27,1.266,1.263,1.261,1.261
1.92,1.914,1.914,1.914,1.914,1.914,1.914,1.914,1.92,1.92,1.92,1.925,1.925,1.93,1.93,1.93,1.93,1.93,1.936,1.936,1.941,1.941,1.941,1.947,1.947,1.952,1.952,1.952,1.958,1.958,1.963,1.963,1.969,1.969,1.969,1.969,1.969,1.969,1.969,1.969,1.963,1.963,1.958,1.958,1.952,1.947,1.936,1.93,1.925,1.914,1.904,1.893,1.888,1.878,1.867,1.857,1.847,1.837,1.828,1.818,1.804,1.79,1.78,1.767,1.753,1.74,1.727,1.709,1.693,1.676,1.66,1.632,1.609,1.58,1.555,1.527,1.507,1.487,1.475,1.462,1.453,1.45,1.444,1.441,1.435,1.432,1.429,1.423,1.417,1.411,1.408,1.405,1.402,1.4,1.4,1.397,1.394,1.394,1.394,1.391,1.388,1.385,1.385,1.383,1.38,1.38,1.377,1.374,1.372,1.372,1.369,1.369,1.366,1.366,1.366,1.369,1.366,1.366,1.366,1.366,1.366,1.363,1.363,1.363,1.363,1.363,1.363,1.366,1.366,1.369,1.372,1.374,1.377,1.377,1.377,1.38,1.38,1.383,1.383,1.383,1.383,1.383,1.383,1.383,1.38,1.38,1.377,1.374,1.369,1.366,1.363,1.361,1.355,1.353,1.35,1.347,1.345,1.342,1.34,1.34,1.34,1.34,1.34,1.342,1.342,1.342,1.342,1.342,1.342,1.342,1.34,1.337,1.334,1.334,1.332,1.329,1.327,1.327,1.324,1.322,1.322,1.319,1.319,1.319,1.316,1.316,1.314,1.314,1.311,1.309,1.304,1.302,1.299,1.297,1.297,1.294,1.294,1.294,1.294,1.294,1.294,1.294,1.294,1.292,1.292,1.292,1.292,1.294,1.294,1.294,1.297,1.297,1.299,1.302,1.304,1.306,1.309,1.311,1.311,1.316,1.319,1.319,1.322,1.324,1.327,1.327,1.329,1.329,1.329,1.332,1.332,1.334,1.334,1.34,1.342,1.342,1.345,1.347,1.347,1.355,1.361,1.369,1.377,1.385,1.397,1.405,1.42,0,0,0,0,0,0,1.656,0,0,1.705,1.74,1.818,1.813,1.837,1.847,1.857,1.862,1.872,1.883,1.888,1.898,1.904,1.904,1.914,1.92,1.925,1.93,1.93,1.936,1.936,1.941,1.941,1.941,1.941,1.936,1.936,1.936,1.936,1.936,1.93,1.936,1.936,1.936,1.936,1.936,1.936,1.941,1.941,1.941,1.941,1.947,1.947,1.947,1.952,1.952,1.952,1.952,1.952,1.952,1.952,1.952,1.952,1.952,1.952,1.952,1.958,1.958,1.958,1.963,1.963,1.969,1.969,1.975,1.975,1.98,1.98,1.98,1.98,1.98,1.98,1.986,1.98,1.98,1.98,1.986,1.986,1.986,1.986,1.986,1.986,1.992,1.992,1.992,1.986,1.986,1.986,1.98,1.98,1.975,1.969,1.969,1.969,1.963,1.958,1.952,1.941,1.936,1.93,1.925,1.92,1.914,1.909,1.904,1.904,1.898,1.898,1.898,1.898,1.898,1.898,1.898,1.904,1.904,1.904,1.909,1.909,1.909,1.909,1.909,1.909,1.909,1.909,1.909,1.904,1.904,1.898,1.893,1.893,1.888,1.883,1.883,1.883,1.883,1.883,1.883,1.888,1.893,1.898,1.898,1.898,1.904,1.904,1.904,1.904,1.904,1.904,1.904,1.898,1.898,1.898,1.893,1.893,1.893,1.893,1.898,1.898,1.904,1.909,1.909,1.914,1.92,1.92,1.925,1.925,1.925,1.914,1.909,1.904,1.893,1.883,1.872,1.862,1.852,1.847,1.842,1.847,1.862,1.878,1.904,1.936,1.969,2.003,2.033,2.064,2.089,2.102,2.108,2.108,2.108,2.102,2.095,2.089,2.076,2.064,2.033,1.992,1.936,1.872,0,0,1.722,1.693,1.664,1.66,1.656,1.652,1.656,1.68,1.714,1.758,1.804,1.857,1.909,1.969,2.021,2.076,2.089,2.095,2.095,2.095,2.089,2.089,2.082,2.076,2.064,2.051,2.039,2.027,2.009,1.952,1.862,0,0,0,1.544,1.507,1.484,1.472,1.465,1.462,1.456,1.453,1.45,1.447,1.444,1.444,1.444,1.444,1.447,1.447,1.45,0,2.147,2.147,2.154,2.154,2.154,2.161,2.161,2.168,2.175,2.175,2.168,2.168,2.168,2.161,2.161,2.154,2.147,2.141,2.134,2.128,2.114,2.102,2.095,2.089,2.082,2.082,0,0,0,0,0,0,0,1.292,1.289,1.287,1.284,1.282,1.282,1.277,1.275,1.273,1.268,1.266,1.263,1.261,1.261
1.947,1.952,1.952,1.947,1.947,1.947,1.947,1.947,1.952,1.952,1.952,1.952,1.952,1.952,1.952,1.952,1.952,1.952,1.958,1.958,1.958,1.963,1.963,1.963,1.969,1.969,1.969,1.975,1.975,1.975,1.98,1.98,1.986,1.986,1.986,1.986,1.98,1.98,1.98,1.98,1.975,1.969,1.969,1.958,1.958,1.952,1.947,1.936,1.925,1.914,1.909,1.898,1.888,1.878,1.867,1.847,1.833,1.818,1.804,1.78,1.762,1.74,1.727,1.709,1.697,1.684,1.672,1.656,1.636,1.621,1.598,0,0,0,1.51,1.491,1.472,1.459,1.453,1.444,1.435,1.435,1.432,1.426,1.42,1.42,1.417,1.411,1.408,1.405,1.4,1.4,1.397,1.397,1.394,1.394,1.391,1.388,1.388,1.385,1.383,1.383,1.38,1.377,1.377,1.374,1.372,1.372,1.369,1.369,1.366,1.366,1.366,1.366,1.363,1.366,1.363,1.363,1.361,1.361,1.361,1.358,1.358,1.358,1.358,1.358,1.358,1.358,1.361,1.363,1.366,1.369,1.372,1.372,1.374,1.374,1.377,1.377,1.38,1.38,1.38,1.38,1.377,1.377,1.377,1.374,1.372,1.369,1.363,1.361,1.358,1.355,1.35,1.347,1.345,1.342,1.34,1.34,1.337,1.337,1.337,1.334,1.337,1.337,1.337,1.337,1.337,1.337,1.337,1.337,1.334,1.332,1.329,1.327,1.327,1.324,1.322,1.322,1.319,1.319,1.316,1.316,1.314,1.314,1.314,1.311,1.309,1.309,1.306,1.302,1.299,1.297,1.294,1.292,1.289,1.287,1.287,1.287,1.287,1.287,1.287,1.287,1.287,1.287,1.287,1.287,1.287,1.287,1.289,1.289,1.292,1.294,1.294,1.297,1.299,1.302,1.302,1.304,1.306,1.309,1.311,1.314,1.316,1.316,1.319,1.319,1.319,1.319,1.316,1.319,1.316,1.316,1.314,1.316,1.319,1.322,1.324,1.324,1.327,1.329,1.334,1.337,1.345,1.347,1.353,1.361,1.369,1.38,1.385,1.402,1.414,1.426,0,0,0,0,0,0,1.636,1.652,1.776,1.837,1.857,1.872,1.878,1.888,1.898,1.904,1.909,1.92,1.925,1.93,1.936,1.941,1.941,1.947,1.952,1.958,1.958,1.958,1.958,1.958,1.963,1.963,1.958,1.958,1.958,1.958,1.963,1.963,1.963,1.963,1.963,1.969,1.969,1.969,1.969,1.975,1.975,1.98,1.98,1.98,1.98,1.98,1.98,1.975,1.975,1.975,1.975,1.975,1.98,1.98,1.98,1.98,1.986,1.986,1.986,1.992,1.998,1.998,1.998,2.003,2.003,2.003,2.009,2.009,2.009,2.009,2.003,2.003,2.009,2.009,2.003,2.009,2.009,2.009,2.009,2.009,2.009,2.003,2.003,2.003,2.003,1.998,1.998,1.992,1.986,1.98,1.98,1.975,1.975,1.969,1.963,1.958,1.952,1.947,1.947,1.941,1.936,1.93,1.93,1.93,1.93,1.93,1.93,1.93,1.93,1.936,1.936,1.936,1.941,1.941,1.941,1.941,1.947,1.947,1.947,1.952,1.952,1.952,1.947,1.947,1.941,1.941,1.936,1.93,1.925,1.92,1.92,1.92,1.92,1.92,1.925,1.925,1.925,1.93,1.93,1.93,1.936,1.936,1.936,1.93,1.93,1.925,1.925,1.92,1.92,1.914,1.914,1.914,1.914,1.914,1.92,1.925,1.925,1.93,1.93,1.936,1.936,1.936,1.936,1.93,1.925,1.92,1.909,1.898,1.888,1.878,1.867,1.857,1.852,1.847,1.852,1.867,1.883,1.909,1.941,1.975,2.009,2.039,2.07,2.102,2.114,2.121,2.121,2.114,2.114,2.108,2.095,2.082,2.057,2.021,1.98,1.92,1.857,0,0,1.718,1.693,1.668,1.66,1.656,1.652,1.656,1.676,1.714,1.753,1.804,1.852,1.909,1.969,2.033,2.089,2.102,2.108,2.108,2.108,2.102,2.102,2.095,2.082,2.076,2.07,2.051,2.039,2.027,0,0,0,0,1.541,1.51,1.491,1.475,1.468,1.465,1.459,1.453,1.45,1.45,1.447,1.444,1.444,1.441,1.444,1.444,1.447,1.447,0,2.161,2.161,2.168,2.175,2.175,2.175,2.182,2.189,2.189,2.189,2.189,2.189,2.189,2.189,2.182,2.182,2.175,2.168,2.154,2.147,2.134,2.128,2.114,2.108,2.102,2.095,0,0,0,0,0,0,0,1.289,1.287,1.287,1.282,1.282,1.28,1.275,1.273,1.27,1.268,1.266,1.261,1.261,1.261
1.975,1.98,1.975,1.975,1.98,1.98,1.98,1.986,1.986,1.986,1.98,1.98,1.98,1.98,1.98,1.98,1.98,1.98,1.986,1.986,1.986,1.986,1.992,1.992,1.992,1.998,1.998,1.998,1.998,1.998,2.003,2.003,2.003,2.003,1.998,1.998,1.998,1.992,1.992,1.986,1.98,1.975,1.975,1.963,1.958,1.952,1.941,1.936,1.925,1.92,1.909,1.898,1.888,1.872,1.852,1.828,1.804,1.785,1.758,1.735,1.709,1.684,1.672,1.656,1.644,1.632,1.617,1.598,1.58,0,1.544,1.524,1.507,1.491,1.475,1.459,1.444,1.438,1.435,1.429,1.423,1.42,1.417,1.411,1.411,1.408,1.408,1.405,1.402,1.397,1.397,1.394,1.391,1.391,1.391,1.388,1.388,1.385,1.383,1.38,1.38,1.377,1.374,1.372,1.372,1.369,1.369,1.369,1.366,1.363,1.363,1.363,1.363,1.363,1.363,1.363,1.363,1.361,1.361,1.358,1.355,1.355,1.353,1.353,1.353,1.353,1.353,1.353,1.355,1.358,1.361,1.363,1.366,1.366,1.366,1.369,1.372,1.372,1.374,1.374,1.374,1.374,1.372,1.372,1.372,1.369,1.366,1.361,1.358,1.355,1.353,1.35,1.345,1.342,1.34,1.337,1.337,1.334,1.332,1.332,1.332,1.332,1.332,1.334,1.334,1.332,1.332,1.332,1.332,1.332,1.329,1.327,1.324,1.324,1.322,1.319,1.316,1.316,1.314,1.314,1.311,1.311,1.309,1.309,1.309,1.306,1.304,1.302,1.299,1.297,1.294,1.292,1.287,1.284,1.284,1.282,1.282,1.282,1.282,1.282,1.282,1.282,1.282,1.282,1.282,1.282,1.284,1.284,1.284,1.287,1.287,1.289,1.292,1.294,1.294,1.297,1.299,1.299,1.302,1.304,1.306,1.306,1.309,1.309,1.311,1.311,1.311,1.311,1.311,1.311,1.311,1.311,1.311,1.311,1.311,1.311,1.311,1.311,1.311,1.314,1.314,1.316,1.319,1.322,1.327,1.329,1.334,1.342,1.347,1.35,1.355,1.363,1.366,1.385,1.38,1.391,0,0,0,0,0,0,1.862,1.872,1.878,1.893,1.904,1.909,1.92,1.925,1.93,1.936,1.941,1.952,1.952,1.958,1.963,1.969,1.975,1.975,1.975,1.98,1.98,1.98,1.986,1.986,1.986,1.986,1.986,1.986,1.992,1.992,1.992,1.998,1.998,1.998,1.998,2.003,2.003,2.003,2.003,2.009,2.009,2.009,2.009,2.003,2.003,2.003,2.003,2.003,2.003,2.003,2.003,2.003,2.009,2.009,2.009,2.015,2.015,2.021,2.021,2.021,2.021,2.027,2.027,2.027,2.027,2.033,2.033,2.033,2.033,2.033,2.033,2.033,2.033,2.027,2.027,2.027,2.027,2.027,2.021,2.021,2.015,2.015,2.009,2.003,1.998,1.998,1.992,1.992,1.986,1.986,1.98,1.98,1.975,1.975,1.969,1.963,1.963,1.963,1.958,1.958,1.963,1.963,1.963,1.963,1.963,1.963,1.969,1.969,1.969,1.975,1.975,1.98,1.986,1.986,1.992,1.992,1.998,1.998,1.992,1.986,1.98,1.975,1.969,1.969,1.963,1.958,1.952,1.952,1.952,1.958,1.963,1.969,1.969,1.975,1.975,1.975,1.975,1.975,1.969,1.963,1.958,1.952,1.947,1.941,1.936,1.93,1.93,1.93,1.93,1.93,1.936,1.941,1.947,1.947,1.947,1.947,1.947,1.947,1.947,1.936,1.93,1.92,1.909,1.898,1.888,1.878,1.867,1.857,1.852,1.847,1.852,1.862,1.883,1.909,1.941,1.98,2.015,2.045,2.076,2.102,2.121,2.134,2.134,2.128,2.121,2.121,2.108,2.082,2.051,2.009,0,0,1.833,1.785,1.735,1.709,1.688,1.668,1.66,1.656,1.652,1.656,1.672,1.709,1.749,1.794,1.847,1.904,1.969,2.045,2.102,2.114,2.114,2.121,2.114,2.114,2.108,2.102,2.095,2.089,2.076,2.064,2.051,2.045,0,0,0,0,0,1.491,1.475,1.468,1.468,1.465,1.462,1.453,1.45,1.45,1.447,1.447,1.444,1.444,1.444,1.447,1.447,1.447,0,2.168,2.175,2.182,2.182,2.189,2.196,2.196,2.203,2.21,2.21,2.21,2.21,2.21,2.21,2.203,2.203,2.196,2.189,2.182,2.175,2.154,2.147,2.134,2.128,2.121,0,0,0,0,0,0,0,1.289,1.284,1.284,1.284,1.282,1.28,1.277,1.273,1.27,1.268,1.266,1.263,1.261,1.259,1.259
2.003,2.003,2.003,2.003,2.009,2.009,2.009,2.009,2.009,2.009,2.009,2.015,2.009,2.009,2.009,2.009,2.009,2.009,2.015,2.015,2.015,2.015,2.015,2.015,2.015,2.021,2.021,2.021,2.021,2.021,2.021,2.021,2.015,2.015,2.015,2.009,2.009,2.003,2.003,1.998,1.992,1.986,1.98,1.969,1.963,1.958,1.947,1.936,1.925,1.914,1.904,1.898,1.878,1.857,1.828,1.794,1.767,1.74,1.714,1.68,1.656,1.632,1.617,1.602,1.587,1.576,0,1.544,1.53,1.514,1.497,1.481,1.468,1.453,1.441,1.432,1.423,1.42,1.417,1.414,1.411,1.408,1.405,1.402,1.402,1.4,1.4,1.397,1.397,1.391,1.391,1.388,1.388,1.385,1.385,1.383,1.383,1.38,1.377,1.374,1.372,1.372,1.369,1.366,1.366,1.363,1.363,1.363,1.361,1.361,1.361,1.361,1.361,1.361,1.361,1.361,1.361,1.358,1.355,1.355,1.353,1.35,1.347,1.347,1.347,1.347,1.347,1.347,1.35,1.353,1.355,1.358,1.358,1.358,1.361,1.363,1.363,1.363,1.366,1.369,1.369,1.366,1.366,1.366,1.363,1.361,1.358,1.355,1.353,1.35,1.347,1.345,1.342,1.34,1.337,1.334,1.332,1.332,1.329,1.329,1.329,1.329,1.329,1.329,1.329,1.329,1.329,1.329,1.327,1.327,1.324,1.324,1.322,1.319,1.316,1.314,1.314,1.311,1.311,1.309,1.309,1.306,1.306,1.304,1.304,1.302,1.299,1.297,1.294,1.292,1.289,1.287,1.284,1.28,1.28,1.277,1.277,1.277,1.277,1.277,1.277,1.277,1.277,1.277,1.277,1.28,1.28,1.28,1.282,1.282,1.284,1.284,1.287,1.289,1.289,1.292,1.292,1.294,1.297,1.297,1.299,1.299,1.302,1.304,1.304,1.304,1.304,1.304,1.304,1.304,1.304,1.304,1.304,1.304,1.306,1.306,1.306,1.306,1.309,1.309,1.309,1.309,1.311,1.311,1.314,1.314,1.316,1.322,1.322,1.327,1.324,1.329,1.332,1.332,1.332,1.337,1.358,1.361,1.358,0,0,0,0,0,1.883,1.898,1.909,1.914,1.925,1.93,1.941,1.947,1.952,1.958,1.963,1.969,1.975,1.986,1.986,1.992,1.998,1.998,2.003,2.003,2.003,2.009,2.009,2.009,2.009,2.015,2.015,2.015,2.021,2.021,2.027,2.027,2.027,2.027,2.033,2.033,2.033,2.039,2.039,2.039,2.039,2.033,2.033,2.033,2.033,2.027,2.027,2.027,2.027,2.033,2.033,2.033,2.033,2.039,2.039,2.039,2.045,2.045,2.045,2.051,2.051,2.051,2.051,2.057,2.057,2.057,2.057,2.057,2.057,2.057,2.057,2.051,2.051,2.051,2.045,2.045,2.039,2.033,2.033,2.027,2.021,2.015,2.015,2.009,2.009,2.009,2.003,2.003,1.998,1.998,1.998,1.998,1.992,1.992,1.992,1.992,1.992,1.992,1.992,1.992,1.998,1.998,1.998,1.998,2.003,2.003,2.003,2.003,2.009,2.009,2.009,2.015,2.021,2.021,2.021,2.021,2.021,2.015,2.015,2.009,2.009,2.003,2.003,1.998,1.998,1.998,1.998,2.009,2.015,2.021,2.021,2.027,2.027,2.027,2.021,2.015,1.998,1.992,1.98,1.975,1.963,1.958,1.952,1.947,1.947,1.947,1.947,1.947,1.952,1.952,1.958,1.958,1.958,1.958,1.958,1.952,1.947,1.941,1.93,1.92,1.909,1.893,1.883,1.872,1.867,1.857,1.852,1.847,1.852,1.862,1.883,1.909,1.941,1.975,2.009,2.045,2.076,2.108,2.121,2.134,2.134,2.128,2.128,2.114,2.089,2.064,2.021,1.963,0,0,0,1.758,1.718,1.697,1.676,1.664,1.656,1.656,1.652,1.656,1.672,1.705,1.74,1.785,1.837,1.893,1.963,2.045,2.121,2.128,2.134,2.134,2.134,2.128,2.121,2.121,2.108,2.102,2.089,2.076,2.064,0,0,0,0,0,0,1.481,1.472,1.465,1.468,1.462,1.459,1.456,1.453,1.453,1.45,1.45,1.447,1.447,1.444,1.447,1.447,1.447,0,2.175,2.182,2.196,2.203,2.203,2.21,2.217,2.224,2.231,2.231,2.238,2.231,2.231,2.231,2.231,2.224,2.217,2.21,2.21,2.196,2.182,2.168,2.161,2.154,2.147,2.134,0,0,0,0,0,0,0,1.282,1.28,1.28,1.277,1.277,1.275,1.27,1.268,1.266,1.266,1.261,1.261,1.259,1.259
2.033,2.033,2.033,2.033,2.039,2.039,2.039,2.045,2.045,2.045,2.045,2.039,2.045,2.045,2.039,2.039,2.039,2.039,2.039,2.039,2.045,2.045,2.045,2.045,2.045,2.051,2.045,2.045,2.045,2.045,2.045,2.039,2.039,2.033,2.033,2.027,2.021,2.015,2.009,2.003,1.998,1.992,1.986,1.975,1.963,1.958,1.947,1.936,1.925,1.909,1.893,1.878,1.852,1.818,1.785,1.749,1.714,1.68,1.656,1.628,0,0,0,1.551,1.537,1.524,1.51,1.497,1.484,1.468,1.456,1.444,1.435,1.426,1.423,1.414,1.408,1.405,1.402,1.402,1.4,1.4,1.397,1.397,1.394,1.394,1.391,1.391,1.388,1.385,1.385,1.383,1.383,1.38,1.38,1.377,1.374,1.374,1.372,1.369,1.366,1.366,1.363,1.361,1.358,1.358,1.361,1.358,1.358,1.358,1.358,1.358,1.361,1.358,1.361,1.361,1.358,1.358,1.353,1.353,1.347,1.347,1.342,1.342,1.342,1.342,1.342,1.342,1.345,1.347,1.35,1.353,1.353,1.353,1.355,1.355,1.358,1.358,1.358,1.361,1.361,1.361,1.358,1.358,1.355,1.353,1.353,1.35,1.347,1.345,1.342,1.34,1.337,1.334,1.332,1.332,1.329,1.329,1.329,1.327,1.327,1.327,1.327,1.327,1.324,1.324,1.324,1.324,1.324,1.322,1.322,1.319,1.316,1.314,1.311,1.311,1.309,1.306,1.306,1.304,1.304,1.302,1.302,1.299,1.299,1.297,1.294,1.292,1.289,1.287,1.284,1.282,1.28,1.277,1.275,1.275,1.275,1.273,1.273,1.273,1.273,1.275,1.275,1.275,1.275,1.275,1.275,1.275,1.277,1.277,1.28,1.28,1.282,1.282,1.284,1.284,1.287,1.287,1.289,1.292,1.292,1.294,1.294,1.294,1.297,1.297,1.297,1.297,1.297,1.297,1.297,1.297,1.297,1.297,1.299,1.299,1.299,1.302,1.302,1.304,1.304,1.304,1.306,1.304,1.304,1.309,1.309,1.311,1.309,1.314,1.314,1.314,1.319,1.319,1.319,1.327,1.327,1.319,1.327,1.329,1.334,1.332,1.332,0,0,0,0,1.925,1.936,1.941,1.952,1.958,1.963,1.969,1.975,1.98,1.986,1.998,2.003,2.009,2.009,2.015,2.021,2.021,2.027,2.033,2.033,2.033,2.033,2.039,2.039,2.045,2.051,2.051,2.051,2.057,2.057,2.057,2.057,2.064,2.064,2.07,2.07,2.07,2.064,2.064,2.064,2.064,2.064,2.064,2.057,2.057,2.057,2.057,2.057,2.064,2.064,2.064,2.064,2.064,2.07,2.07,2.076,2.076,2.076,2.082,2.082,2.082,2.089,2.089,2.082,2.082,2.089,2.089,2.082,2.076,2.076,2.07,2.064,2.057,2.051,2.045,2.045,2.039,2.033,2.033,2.027,2.027,2.027,2.021,2.021,2.021,2.021,2.021,2.021,2.021,2.021,2.021,2.021,2.021,2.021,2.021,2.021,2.021,2.027,2.027,2.027,2.033,2.033,2.033,2.033,2.033,2.033,2.039,2.039,2.045,2.045,2.045,2.051,2.051,2.045,2.045,2.045,2.045,2.045,2.039,2.045,2.045,2.051,2.051,2.057,2.064,2.076,2.076,2.082,2.082,2.082,2.076,2.064,2.051,2.039,2.015,2.003,1.992,1.98,1.969,1.963,1.963,1.963,1.963,1.963,1.958,1.958,1.963,1.963,1.963,1.963,1.958,1.958,1.952,1.947,1.936,1.925,1.914,1.904,1.893,1.878,1.872,1.862,1.852,1.852,1.847,1.852,1.862,1.878,1.904,1.936,1.963,2.003,2.039,2.07,2.102,2.114,2.128,2.128,2.128,2.128,2.108,2.064,2.027,1.975,1.914,0,0,0,1.731,1.701,1.684,1.668,1.66,1.656,1.656,1.652,1.652,1.672,1.701,1.74,0,1.842,1.914,1.986,2.082,2.141,2.154,2.161,2.168,2.161,2.154,2.147,2.141,2.134,2.121,2.108,0,0,0,0,0,1.487,0,1.478,1.472,1.465,1.465,1.465,1.465,1.459,1.456,1.456,1.453,1.453,1.45,1.45,1.447,1.444,1.444,1.447,1.447,0,2.203,2.21,2.224,2.231,2.238,2.246,2.253,2.261,2.261,2.268,2.268,2.261,2.261,2.261,2.253,2.246,2.246,2.238,2.224,2.217,2.203,2.189,2.182,2.168,2.161,2.147,0,0,0,0,0,0,0,1.28,1.277,1.277,1.277,1.275,1.273,1.268,1.266,1.263,1.263,1.261,1.261,1.259,1.259
2.064,2.064,2.064,2.064,2.064,2.07,2.07,2.076,2.076,2.076,2.076,2.076,2.076,2.076,2.07,2.07,2.07,2.07,2.076,2.07,2.07,2.07,2.076,2.076,2.076,2.076,2.076,2.076,2.07,2.07,2.064,2.064,2.057,2.051,2.045,2.039,2.033,2.027,2.021,2.009,2.003,1.992,1.986,1.975,1.969,1.958,1.947,1.941,1.92,1.898,1.872,1.842,1.808,1.771,1.735,1.697,1.66,0,1.602,1.576,1.555,1.534,1.517,1.507,1.494,1.484,1.475,1.462,1.45,1.441,1.429,1.42,1.411,1.405,1.402,1.4,1.397,1.397,1.394,1.394,1.391,1.391,1.391,1.388,1.388,1.385,1.385,1.383,1.383,1.38,1.38,1.377,1.377,1.374,1.374,1.372,1.369,1.366,1.363,1.363,1.361,1.358,1.358,1.355,1.355,1.355,1.355,1.355,1.355,1.355,1.355,1.355,1.358,1.358,1.358,1.358,1.358,1.355,1.35,1.347,1.345,1.342,1.34,1.337,1.337,1.334,1.337,1.34,1.34,1.342,1.342,1.345,1.345,1.347,1.347,1.35,1.35,1.35,1.353,1.353,1.353,1.353,1.35,1.35,1.35,1.347,1.345,1.345,1.342,1.34,1.337,1.337,1.334,1.332,1.329,1.329,1.327,1.327,1.327,1.327,1.324,1.324,1.324,1.324,1.322,1.322,1.322,1.322,1.319,1.319,1.316,1.314,1.311,1.311,1.309,1.306,1.304,1.304,1.302,1.299,1.299,1.297,1.297,1.294,1.294,1.292,1.289,1.287,1.284,1.282,1.28,1.277,1.275,1.273,1.27,1.27,1.27,1.27,1.268,1.268,1.27,1.27,1.27,1.27,1.27,1.27,1.27,1.273,1.273,1.273,1.275,1.275,1.275,1.277,1.277,1.277,1.28,1.28,1.282,1.284,1.284,1.287,1.287,1.287,1.287,1.287,1.289,1.289,1.289,1.289,1.289,1.287,1.289,1.289,1.289,1.292,1.292,1.294,1.294,1.297,1.297,1.299,1.299,1.299,1.302,1.304,1.304,1.306,1.309,1.309,1.311,1.314,1.314,1.316,1.316,1.316,1.319,1.319,1.324,1.319,1.319,1.322,1.322,1.327,1.329,1.329,1.327,1.329,1.329,0,0,0,1.975,1.98,1.986,1.992,1.998,2.003,2.009,2.021,2.021,2.027,2.039,2.039,2.045,2.045,2.051,2.057,2.064,2.064,2.07,2.07,2.07,2.076,2.076,2.082,2.082,2.089,2.089,2.089,2.089,2.095,2.095,2.095,2.095,2.095,2.095,2.095,2.095,2.089,2.089,2.089,2.089,2.089,2.089,2.089,2.089,2.089,2.095,2.095,2.095,2.095,2.102,2.102,2.102,2.108,2.108,2.114,2.114,2.114,2.114,2.114,2.114,2.108,2.102,2.102,2.089,2.082,2.076,2.07,2.064,2.057,2.057,2.051,2.051,2.045,2.045,2.045,2.045,2.045,2.045,2.045,2.045,2.045,2.045,2.045,2.051,2.051,2.051,2.051,2.051,2.057,2.057,2.057,2.057,2.057,2.064,2.064,2.064,2.064,2.064,2.064,2.07,2.07,2.07,2.076,2.076,2.082,2.082,2.082,2.082,2.089,2.089,2.089,2.082,2.089,2.095,2.102,2.108,2.114,2.121,2.128,2.141,2.141,2.147,2.147,2.141,2.128,2.108,2.095,2.076,2.051,2.033,2.015,1.998,1.986,1.98,1.975,1.975,1.975,1.975,1.969,1.969,1.969,1.969,1.969,1.963,1.963,1.952,1.947,1.941,1.925,1.92,1.904,1.898,1.888,1.878,1.867,1.862,1.852,1.852,1.847,1.852,1.862,1.872,1.898,1.925,1.952,1.98,2.015,2.045,2.07,2.076,2.082,2.07,2.057,2.057,2.033,1.992,1.947,0,0,1.804,1.767,1.735,1.709,1.684,1.676,1.668,1.656,1.656,1.656,1.652,1.652,1.672,1.697,1.735,1.785,0,0,0,0,0,0,0,0,2.182,2.182,2.168,0,0,0,0,0,0,0,0,0,1.472,1.468,1.468,1.465,1.462,1.465,1.465,1.462,1.459,1.456,1.456,1.453,1.453,1.45,1.45,1.447,1.444,1.444,1.447,1.444,0,2.238,2.253,2.268,2.268,2.275,2.283,2.298,2.306,2.306,2.298,2.298,2.298,2.291,2.283,2.275,2.268,2.261,2.253,2.246,2.231,2.224,2.21,2.203,2.189,0,0,0,0,0,0,0,0,1.282,1.28,1.277,1.277,1.275,1.273,1.27,1.268,1.263,1.263,1.263,1.261,1.261,1.259,1.259
2.095,2.095,2.095,2.095,2.095,2.102,2.102,2.102,2.102,2.102,2.108,2.108,2.108,2.108,2.102,2.102,2.108,2.102,2.102,2.102,2.102,2.102,2.102,2.102,2.102,2.102,2.102,2.095,2.095,2.089,2.089,2.082,2.076,2.076,2.07,2.064,2.051,2.039,2.033,2.021,2.009,1.998,1.986,1.975,1.969,1.952,1.93,1.914,1.883,1.852,1.823,1.79,1.749,1.709,1.676,0,0,1.58,1.555,1.53,1.514,1.491,1.478,1.468,1.459,1.453,1.444,1.435,1.426,1.42,1.414,1.408,1.402,1.397,1.397,1.391,1.391,1.388,1.388,1.388,1.385,1.385,1.383,1.383,1.38,1.38,1.38,1.38,1.377,1.374,1.374,1.372,1.372,1.369,1.366,1.366,1.363,1.361,1.358,1.358,1.355,1.355,1.353,1.35,1.35,1.353,1.353,1.353,1.353,1.353,1.353,1.353,1.355,1.355,1.355,1.355,1.355,1.353,1.347,1.347,1.342,1.34,1.337,1.334,1.332,1.332,1.334,1.334,1.334,1.337,1.337,1.34,1.34,1.342,1.342,1.342,1.345,1.345,1.345,1.345,1.345,1.345,1.345,1.345,1.342,1.342,1.34,1.34,1.337,1.334,1.334,1.332,1.329,1.329,1.327,1.327,1.327,1.324,1.324,1.324,1.322,1.322,1.322,1.322,1.319,1.319,1.319,1.316,1.316,1.314,1.311,1.311,1.309,1.306,1.304,1.302,1.299,1.299,1.297,1.294,1.294,1.292,1.292,1.289,1.287,1.287,1.284,1.282,1.28,1.277,1.275,1.273,1.27,1.268,1.268,1.266,1.266,1.266,1.266,1.266,1.266,1.268,1.268,1.268,1.268,1.268,1.268,1.268,1.268,1.268,1.27,1.27,1.27,1.27,1.27,1.273,1.273,1.275,1.275,1.277,1.277,1.28,1.28,1.28,1.28,1.282,1.282,1.282,1.282,1.282,1.282,1.282,1.282,1.282,1.282,1.282,1.284,1.287,1.289,1.289,1.292,1.292,1.294,1.294,1.294,1.297,1.299,1.302,1.304,1.304,1.306,1.309,1.311,1.311,1.316,1.316,1.314,1.316,1.316,1.316,1.316,1.316,1.319,1.319,1.319,1.322,1.324,1.327,1.327,1.327,0,0,0,0,0,0,0,0,2.027,2.033,2.033,2.039,2.045,2.057,2.057,2.064,2.07,2.076,2.082,2.082,2.089,2.089,2.095,2.095,2.102,2.102,2.108,2.108,2.114,2.114,2.114,2.121,2.121,2.121,2.121,2.121,2.121,2.121,2.121,2.121,2.121,2.121,2.121,2.121,2.121,2.121,2.121,2.121,2.121,2.121,2.121,2.128,2.128,2.128,2.128,2.134,2.134,2.134,2.141,2.141,2.141,2.141,2.134,2.128,2.121,2.114,2.108,2.102,2.095,2.082,2.076,2.076,2.07,2.07,2.064,2.064,2.057,2.064,2.064,2.064,2.07,2.07,2.07,2.07,2.076,2.076,2.076,2.082,2.082,2.082,2.089,2.089,2.089,2.089,2.089,2.095,2.095,2.095,2.095,2.095,2.095,2.095,2.102,2.102,2.108,2.114,2.114,2.121,2.121,2.128,2.134,2.134,2.141,2.134,2.141,2.147,2.154,2.168,2.175,2.182,2.189,2.189,2.203,2.21,2.21,2.21,2.203,2.189,2.168,2.147,2.121,2.089,2.064,2.039,2.015,1.998,1.992,1.986,1.98,1.98,1.975,1.975,1.975,1.975,1.975,1.975,1.963,1.958,1.952,1.941,1.936,1.925,1.914,1.904,1.893,1.888,1.878,1.872,1.862,1.857,1.852,1.847,1.847,1.852,1.867,1.883,1.909,1.941,0,1.992,2.021,2.051,2.064,2.064,2.051,2.033,0,0,0,0,0,0,1.758,1.727,1.705,1.684,1.668,1.668,1.66,1.656,1.652,1.652,1.652,1.652,1.664,1.684,1.722,0,0,0,0,0,0,0,0,0,0,2.21,0,0,0,0,0,0,0,0,0,0,0,1.465,1.465,1.462,1.462,1.462,1.462,1.462,1.459,1.456,1.453,1.453,1.453,1.45,1.447,1.444,1.444,1.444,1.444,1.444,0,0,0,0,0,0,2.329,2.329,2.337,2.337,2.329,2.329,2.322,2.314,2.314,2.298,2.291,2.283,2.275,2.268,2.253,2.238,2.224,2.224,2.217,0,0,0,0,0,0,0,0,1.282,1.28,1.277,1.277,1.275,1.273,1.27,1.266,1.263,1.263,1.263,1.261,1.259,1.259,1.259
2.121,2.128,2.128,2.128,2.128,2.128,2.134,2.134,2.134,2.134,2.134,2.134,2.134,2.134,2.134,2.134,2.134,2.134,2.134,2.128,2.128,2.128,2.128,2.128,2.128,2.128,2.121,2.121,2.121,2.114,2.108,2.108,2.102,2.095,2.082,2.076,2.064,2.051,2.045,2.027,2.015,1.992,1.969,1.947,1.925,1.898,1.872,1.847,1.813,1.776,1.749,1.722,1.688,0,0,0,1.562,1.537,1.517,1.494,1.478,1.462,1.45,1.441,1.435,1.429,1.423,1.42,1.414,1.408,1.402,1.4,1.397,1.394,1.391,1.388,1.385,1.383,1.383,1.383,1.383,1.38,1.38,1.377,1.377,1.377,1.374,1.374,1.372,1.369,1.369,1.366,1.366,1.363,1.361,1.358,1.358,1.355,1.353,1.353,1.35,1.35,1.35,1.347,1.347,1.35,1.35,1.35,1.35,1.35,1.35,1.353,1.353,1.353,1.353,1.355,1.353,1.35,1.345,1.345,1.34,1.337,1.334,1.332,1.332,1.329,1.332,1.332,1.332,1.332,1.334,1.334,1.334,1.337,1.337,1.337,1.34,1.34,1.34,1.34,1.34,1.34,1.337,1.337,1.337,1.337,1.334,1.332,1.332,1.329,1.329,1.329,1.327,1.327,1.324,1.324,1.324,1.322,1.322,1.322,1.319,1.319,1.319,1.316,1.316,1.316,1.314,1.314,1.311,1.309,1.309,1.306,1.304,1.302,1.299,1.297,1.294,1.294,1.292,1.289,1.289,1.287,1.284,1.284,1.282,1.28,1.28,1.277,1.275,1.273,1.27,1.268,1.266,1.266,1.263,1.263,1.263,1.263,1.263,1.263,1.263,1.263,1.263,1.263,1.263,1.263,1.263,1.263,1.263,1.263,1.266,1.263,1.263,1.266,1.266,1.266,1.268,1.268,1.268,1.27,1.27,1.273,1.273,1.273,1.275,1.275,1.277,1.277,1.277,1.277,1.275,1.275,1.275,1.277,1.277,1.277,1.277,1.28,1.282,1.284,1.284,1.287,1.287,1.289,1.292,1.294,1.297,1.297,1.299,1.302,1.304,1.306,1.309,1.309,1.309,1.311,1.311,1.314,1.314,1.314,1.314,1.316,1.316,1.316,1.319,1.319,1.322,1.324,1.324,1.324,1.327,1.329,0,0,0,0,0,0,0,2.039,2.045,2.051,2.057,2.064,2.07,2.076,2.082,2.089,2.095,2.102,2.102,2.102,2.108,2.114,2.114,2.121,2.121,2.128,2.134,2.134,2.141,2.141,2.147,2.147,2.147,2.147,2.147,2.147,2.147,2.147,2.147,2.147,2.147,2.147,2.147,2.147,2.147,2.147,2.147,2.147,2.147,2.147,2.147,2.154,2.154,2.154,2.161,2.161,2.161,2.161,2.161,2.161,2.154,2.147,2.141,2.134,2.121,2.114,2.108,2.102,2.095,2.095,2.089,2.089,2.089,2.082,2.082,2.082,2.089,2.089,2.095,2.095,2.102,2.102,2.102,2.108,2.114,2.114,2.114,2.114,2.121,2.121,2.121,2.128,2.128,2.128,2.128,2.128,2.128,2.128,2.128,2.134,2.141,2.141,2.147,2.154,2.161,2.168,2.175,2.182,2.189,2.196,2.203,2.21,2.21,2.21,2.224,2.231,2.238,2.246,2.253,2.261,2.275,2.275,2.283,2.283,2.275,2.261,2.238,2.203,2.175,2.134,2.095,2.064,2.033,2.009,1.998,1.992,1.986,1.986,1.986,1.98,1.975,1.975,1.975,1.969,1.963,1.958,1.947,1.941,1.93,1.92,1.909,1.898,1.893,1.888,1.878,1.872,1.862,1.857,1.852,1.847,1.842,1.847,1.862,1.888,1.92,1.952,1.986,2.021,2.064,2.108,2.121,2.114,2.095,2.07,2.045,0,0,0,0,1.762,1.735,1.709,1.688,1.676,1.664,1.66,1.656,1.656,1.652,1.652,1.652,1.652,1.66,1.672,1.709,1.753,0,0,0,0,2.246,0,0,2.268,2.261,2.261,2.246,0,0,0,0,0,0,0,0,0,0,0,0,0,1.459,1.462,1.462,1.459,1.459,1.453,1.453,1.453,1.45,1.45,1.444,1.444,1.441,1.444,1.441,1.441,1.441,0,0,0,0,0,2.361,2.37,2.37,2.37,2.37,2.361,2.353,2.345,2.337,2.322,2.314,2.298,2.291,2.275,2.268,2.253,2.238,2.238,2.224,2.217,0,0,0,0,0,0,0,0,1.277,1.277,1.275,1.273,1.27,1.268,1.266,1.263,1.263,1.261,1.261,1.259,1.259,1.259
