1.322,1.322,1.324,1.324,1.324,1.327,1.327,1.329,1.329,1.332,1.332,1.332,1.334,1.334,1.334,1.337,1.337,1.34,1.34,1.34,1.34,1.34,1.34,1.34,1.34,1.34,1.34,1.34,1.34,1.337,1.337,1.337,1.337,1.334,1.334,1.334,1.334,1.334,1.332,1.332,1.332,1.332,1.332,1.332,1.332,1.332,1.329,1.329,1.329,1.327,1.327,1.324,1.324,1.322,1.322,1.319,1.316,1.316,1.314,1.314,1.311,1.311,1.311,1.311,1.311,1.311,1.311,1.311,1.311,1.314,1.314,1.311,1.311,1.311,1.309,1.309,1.309,1.306,1.306,1.304,1.304,1.304,1.302,1.302,1.302,1.299,1.299,1.299,1.299,1.297,1.297,1.297,1.297,1.297,1.297,1.297,1.297,1.297,1.297,1.297,1.297,1.299,1.299,1.299,1.299,1.299,1.299,1.302,1.302,1.302,1.302,1.304,1.302,1.302,1.302,1.302,1.302,1.299,1.299,1.297,1.294,1.294,1.294,1.294,1.292,1.292,1.292,1.292,1.292,1.292,1.294,1.294,1.294,1.294,1.294,1.294,1.294,1.294,1.294,1.294,1.294,1.294,1.294,1.294,1.294,1.294,1.294,1.292,1.292,1.292,1.292,1.294,1.294,1.294,1.294,1.294,1.294,1.294,1.294,1.297,1.297,1.294,1.294,1.294,1.292,1.292,1.292,1.289,1.289,1.289,1.287,1.287,1.284,1.284,1.282,1.282,1.28,1.28,1.277,1.277,1.277,1.277,1.277,1.275,1.275,1.275,1.275,1.275,1.277,1.277,1.277,1.28,1.28,1.28,1.282,1.282,1.282,1.282,1.282,1.282,1.282,1.282,1.282,1.282,1.284,1.284,1.287,1.287,1.287,1.289,1.289,1.292,1.292,1.292,1.294,1.294,1.297,1.297,1.299,1.299,1.299,1.302,1.302,1.302,1.304,1.304,1.304,1.306,1.306,1.309,1.311,1.311,1.314,1.316,1.319,1.322,1.324,1.327,1.329,1.332,1.334,1.337,1.34,1.342,1.345,1.347,1.35,1.353,1.353,1.355,1.355,1.358,1.358,1.361,1.361,1.358,1.358,1.358,1.358,1.358,1.355,1.355,1.355,1.353,1.353,1.353,1.353,1.35,1.35,0,0,0,0,0,0,2.403,2.403,2.411,2.411,2.42,2.42,2.428,2.428,2.437,2.437,2.446,2.446,2.446,2.454,2.454,2.454,2.454,2.446,2.446,2.446,2.437,2.428,2.428,2.42,2.42,2.411,2.411,2.403,2.403,2.403,2.403,2.403,2.403,2.403,2.403,2.403,2.403,2.403,2.403,2.411,2.411,2.411,2.411,2.411,2.411,2.411,2.411,2.411,2.411,2.411,2.411,2.411,2.411,2.42,2.42,2.42,2.428,2.428,2.428,2.428,2.428,2.428,2.428,2.428,2.428,2.428,2.428,2.428,2.428,2.428,2.428,2.428,2.428,2.428,2.437,2.446,2.463,2.481,2.499,2.526,2.545,2.574,2.593,2.613,2.623,2.643,2.653,2.664,2.664,2.664,2.664,2.664,2.664,2.653,2.653,2.653,2.653,2.653,2.664,2.653,2.653,2.643,2.633,2.593,2.526,2.42,2.329,2.238,2.161,2.108,2.064,2.033,2.015,2.009,2.009,2.003,1.998,1.998,1.998,1.992,1.992,1.986,1.986,0,0,1.952,1.952,1.941,1.936,1.936,1.93,1.92,1.92,1.925,1.92,1.98,2.051,0,0,2.361,2.481,2.613,2.684,2.684,2.684,2.674,2.664,2.653,2.633,2.633,2.536,0,0,0,1.78,1.74,1.718,1.705,1.701,1.693,1.688,1.688,1.684,1.68,1.68,1.676,1.68,1.68,0,0,2.716,2.716,2.716,2.716,2.727,2.727,2.727,2.738,2.738,2.749,2.749,2.771,2.782,0,0,0,0,0,0,0,0,1.524,1.52,1.514,1.514,1.51,1.507,1.504,1.504,1.504,1.497,1.497,1.497,1.497,1.494,1.494,0,2.695,2.695,2.695,2.684,2.674,2.674,2.664,2.664,2.664,2.664,2.664,2.674,2.695,2.705,2.716,2.738,2.749,2.749,2.749,2.76,2.749,2.749,0,0,0,0,0,0,0,0,0,0,1.273,1.273,1.275,1.275,1.277,1.275,1.275,1.277,1.277,1.28,1.28,1.28,1.28,1.28,1.282,1.282,1.282,1.282,0,0,0,2.291,2.283,2.283,2.283,2.283,2.275,2.275,2.275,2.268,2.268,2.268,2.261,2.261,2.253,2.246,2.238,2.224,2.217,2.21,2.203,2.196
1.324,1.324,1.327,1.327,1.329,1.329,1.329,1.332,1.332,1.334,1.334,1.337,1.337,1.337,1.34,1.34,1.342,1.342,1.342,1.342,1.342,1.342,1.342,1.342,1.342,1.345,1.342,1.342,1.342,1.342,1.342,1.34,1.34,1.34,1.34,1.34,1.34,1.337,1.337,1.337,1.337,1.337,1.337,1.337,1.337,1.334,1.334,1.334,1.332,1.332,1.329,1.329,1.327,1.327,1.324,1.322,1.322,1.319,1.319,1.316,1.316,1.316,1.314,1.314,1.314,1.314,1.316,1.316,1.316,1.316,1.316,1.316,1.316,1.314,1.314,1.311,1.311,1.309,1.309,1.306,1.306,1.306,1.306,1.306,1.304,1.304,1.304,1.302,1.302,1.302,1.302,1.302,1.299,1.299,1.299,1.299,1.299,1.299,1.299,1.302,1.302,1.302,1.302,1.302,1.302,1.304,1.304,1.304,1.304,1.304,1.304,1.304,1.304,1.304,1.304,1.304,1.302,1.302,1.302,1.299,1.299,1.297,1.297,1.297,1.297,1.294,1.294,1.294,1.294,1.297,1.297,1.297,1.297,1.299,1.299,1.299,1.299,1.299,1.299,1.299,1.299,1.297,1.297,1.297,1.297,1.297,1.297,1.297,1.297,1.297,1.297,1.297,1.297,1.297,1.297,1.299,1.299,1.299,1.299,1.299,1.299,1.299,1.299,1.297,1.297,1.294,1.294,1.294,1.292,1.292,1.289,1.289,1.287,1.287,1.284,1.284,1.282,1.282,1.28,1.28,1.28,1.277,1.277,1.277,1.277,1.277,1.277,1.277,1.28,1.28,1.28,1.282,1.282,1.282,1.284,1.284,1.284,1.284,1.284,1.284,1.287,1.287,1.287,1.287,1.287,1.289,1.289,1.289,1.292,1.292,1.292,1.294,1.294,1.297,1.297,1.299,1.299,1.302,1.302,1.302,1.304,1.304,1.304,1.306,1.306,1.309,1.309,1.311,1.311,1.314,1.316,1.316,1.319,1.322,1.324,1.327,1.329,1.332,1.334,1.34,1.342,1.345,1.347,1.35,1.353,1.355,1.355,1.358,1.361,1.361,1.363,1.366,1.366,1.366,1.366,1.366,1.363,1.363,1.363,1.363,1.361,1.358,1.358,1.355,1.355,1.353,1.353,1.35,0,0,0,0,0,0,2.394,2.403,2.403,2.403,2.411,2.411,2.42,2.42,2.428,2.437,2.437,2.446,2.446,2.446,2.446,2.446,2.446,2.446,2.437,2.437,2.437,2.437,2.428,2.428,2.42,2.42,2.411,2.411,2.403,2.403,2.403,2.403,2.403,2.403,2.403,2.403,2.403,2.411,2.411,2.411,2.411,2.411,2.411,2.411,2.411,2.411,2.411,2.411,2.411,2.411,2.411,2.411,2.411,2.42,2.42,2.42,2.42,2.428,2.428,2.428,2.428,2.428,2.428,2.428,2.428,2.428,2.428,2.428,2.428,2.428,2.428,2.428,2.428,2.42,2.428,2.428,2.446,2.454,2.472,2.499,2.517,2.545,2.574,2.593,2.613,2.623,2.643,2.653,2.664,2.664,2.664,2.664,2.664,2.664,2.664,2.653,2.653,2.653,2.664,2.664,2.653,2.653,2.653,2.633,2.593,2.526,2.42,0,2.231,2.154,2.102,2.057,2.033,2.021,2.015,2.009,2.009,2.003,1.998,1.998,1.992,1.998,1.992,1.986,1.969,0,1.952,1.947,1.941,1.936,1.93,1.925,1.92,1.92,1.92,1.925,1.986,2.064,0,0,2.37,2.49,2.623,2.674,2.684,2.674,2.674,2.653,2.643,2.633,2.623,2.526,2.361,0,0,1.785,1.744,1.722,1.709,1.705,1.697,1.693,1.688,1.684,1.68,1.68,1.676,1.676,1.676,0,0,2.716,2.716,2.716,2.716,2.716,2.727,2.727,2.738,2.738,2.749,2.76,2.76,2.771,0,0,0,0,0,0,0,1.53,1.527,1.52,1.514,1.514,1.514,1.507,1.507,1.504,1.504,1.5,1.497,1.5,1.5,1.5,0,0,2.695,2.695,2.695,2.684,2.674,2.674,2.664,2.664,2.664,2.664,2.674,2.674,2.695,2.716,2.716,2.738,2.749,2.749,2.76,2.76,2.749,0,0,0,0,0,0,0,0,0,0,0,0,1.273,1.275,1.275,1.277,1.275,1.275,1.277,1.277,1.28,1.28,1.28,1.28,1.28,1.282,1.282,1.282,0,0,0,0,2.283,2.283,2.283,2.283,2.283,2.275,2.275,2.275,2.268,2.268,2.268,2.261,2.261,2.253,2.246,2.238,2.231,2.224,2.217,2.21,2.203
1.327,1.329,1.329,1.329,1.332,1.332,1.332,1.334,1.334,1.337,1.337,1.34,1.34,1.34,1.342,1.345,1.345,1.345,1.345,1.345,1.345,1.345,1.347,1.347,1.347,1.347,1.347,1.347,1.347,1.347,1.347,1.347,1.345,1.345,1.342,1.342,1.342,1.342,1.342,1.342,1.342,1.342,1.342,1.34,1.34,1.34,1.34,1.337,1.337,1.334,1.334,1.332,1.332,1.329,1.329,1.327,1.327,1.324,1.322,1.322,1.319,1.319,1.319,1.319,1.319,1.319,1.319,1.319,1.319,1.319,1.319,1.319,1.319,1.316,1.316,1.316,1.316,1.314,1.311,1.311,1.309,1.309,1.309,1.309,1.309,1.309,1.306,1.306,1.306,1.306,1.304,1.304,1.304,1.304,1.304,1.304,1.302,1.304,1.304,1.304,1.304,1.304,1.304,1.304,1.304,1.304,1.306,1.306,1.306,1.306,1.306,1.306,1.306,1.306,1.306,1.306,1.306,1.304,1.304,1.304,1.302,1.302,1.302,1.299,1.299,1.299,1.299,1.299,1.299,1.299,1.302,1.302,1.302,1.302,1.302,1.304,1.304,1.304,1.302,1.302,1.302,1.302,1.302,1.299,1.299,1.299,1.299,1.299,1.299,1.299,1.299,1.299,1.299,1.302,1.302,1.302,1.302,1.302,1.304,1.304,1.304,1.302,1.302,1.302,1.302,1.299,1.299,1.297,1.297,1.294,1.294,1.292,1.292,1.289,1.289,1.287,1.284,1.284,1.282,1.282,1.282,1.28,1.28,1.28,1.28,1.28,1.28,1.28,1.28,1.282,1.282,1.284,1.284,1.284,1.287,1.287,1.287,1.287,1.287,1.289,1.289,1.289,1.289,1.292,1.292,1.292,1.292,1.294,1.294,1.294,1.297,1.297,1.299,1.299,1.302,1.302,1.302,1.304,1.304,1.306,1.306,1.309,1.309,1.311,1.311,1.311,1.314,1.316,1.316,1.319,1.322,1.324,1.327,1.327,1.329,1.334,1.337,1.34,1.342,1.345,1.347,1.35,1.353,1.355,1.358,1.361,1.361,1.363,1.366,1.369,1.369,1.372,1.372,1.372,1.372,1.372,1.372,1.369,1.369,1.366,1.363,1.361,1.361,1.358,1.358,1.353,1.353,0,0,0,0,2.386,2.386,2.394,2.394,2.403,2.403,2.411,2.411,2.411,2.42,2.42,2.428,2.428,2.437,2.437,2.437,2.437,2.437,2.437,2.437,2.437,2.437,2.437,2.428,2.428,2.42,2.42,2.42,2.411,2.411,2.403,2.403,2.403,2.403,2.403,2.403,2.403,2.403,2.403,2.403,2.411,2.411,2.411,2.411,2.411,2.411,2.411,2.411,2.411,2.411,2.411,2.411,2.411,2.411,2.411,2.42,2.42,2.42,2.42,2.42,2.428,2.428,2.428,2.428,2.428,2.428,2.428,2.428,2.428,2.428,2.428,2.428,2.428,2.42,2.42,2.42,2.42,2.428,2.428,2.446,2.454,2.472,2.49,2.517,2.545,2.564,2.593,2.603,2.623,2.633,2.653,2.664,2.664,2.664,2.664,2.664,2.664,2.664,2.653,2.653,2.653,2.664,2.653,2.653,2.653,2.643,2.633,2.593,2.508,2.403,2.306,2.217,2.141,2.095,2.057,2.039,2.021,2.015,2.015,2.009,2.009,2.003,1.998,1.998,1.998,1.992,1.986,0,0,1.947,1.941,1.936,1.93,1.925,1.925,1.92,1.92,1.914,1.925,1.992,2.07,0,0,2.386,2.508,2.643,2.674,2.684,2.674,2.664,2.653,2.633,2.623,2.613,2.517,2.353,2.147,0,1.785,1.744,1.727,1.709,1.709,1.701,1.693,1.688,1.684,1.68,1.676,1.672,1.676,1.676,0,2.716,2.716,2.705,2.716,2.716,2.716,2.727,2.727,2.738,2.749,2.749,2.76,2.771,2.782,0,0,0,0,0,0,0,0,1.527,1.52,1.517,1.514,1.514,1.51,1.507,1.507,1.507,1.504,1.504,1.504,1.504,1.504,0,0,2.674,2.684,2.684,2.674,2.674,2.664,2.664,2.653,2.653,2.664,2.664,2.674,2.695,2.705,2.716,2.738,2.738,2.749,2.749,2.749,2.738,0,0,0,0,0,0,0,0,0,0,0,0,1.273,1.273,1.275,1.275,1.273,1.275,1.275,1.277,1.277,1.28,1.28,1.28,1.28,1.282,1.282,1.282,0,0,0,0,2.283,2.283,2.283,2.283,2.275,2.275,2.275,2.275,2.268,2.268,2.268,2.268,2.261,2.253,2.253,2.238,2.231,2.224,2.217,2.21,2.203
1.332,1.332,1.332,1.332,1.332,1.332,1.334,1.337,1.337,1.34,1.34,1.34,1.342,1.345,1.345,1.347,1.347,1.347,1.347,1.347,1.347,1.35,1.35,1.35,1.35,1.35,1.35,1.35,1.35,1.35,1.35,1.35,1.35,1.35,1.35,1.347,1.347,1.347,1.347,1.345,1.345,1.345,1.345,1.345,1.345,1.345,1.342,1.342,1.342,1.34,1.34,1.337,1.337,1.334,1.334,1.332,1.329,1.329,1.327,1.327,1.324,1.324,1.322,1.322,1.322,1.322,1.322,1.324,1.324,1.324,1.324,1.322,1.322,1.322,1.319,1.319,1.319,1.319,1.316,1.316,1.314,1.314,1.314,1.311,1.311,1.311,1.311,1.311,1.309,1.309,1.309,1.309,1.306,1.306,1.306,1.306,1.304,1.304,1.304,1.304,1.304,1.304,1.304,1.304,1.306,1.306,1.306,1.306,1.306,1.306,1.309,1.309,1.309,1.309,1.309,1.309,1.309,1.306,1.306,1.306,1.306,1.304,1.304,1.304,1.304,1.304,1.302,1.302,1.304,1.304,1.306,1.306,1.306,1.306,1.309,1.309,1.306,1.306,1.306,1.306,1.304,1.304,1.304,1.304,1.302,1.302,1.302,1.302,1.302,1.302,1.302,1.302,1.302,1.302,1.304,1.304,1.304,1.304,1.306,1.306,1.306,1.306,1.306,1.304,1.304,1.304,1.302,1.302,1.299,1.299,1.297,1.297,1.294,1.294,1.292,1.289,1.289,1.287,1.284,1.284,1.284,1.282,1.282,1.282,1.282,1.282,1.282,1.282,1.282,1.284,1.284,1.284,1.287,1.287,1.289,1.289,1.289,1.292,1.292,1.292,1.294,1.294,1.294,1.294,1.297,1.297,1.297,1.297,1.299,1.299,1.299,1.302,1.302,1.304,1.304,1.304,1.306,1.306,1.309,1.309,1.311,1.311,1.314,1.314,1.316,1.319,1.319,1.322,1.322,1.324,1.327,1.329,1.332,1.334,1.337,1.34,1.342,1.345,1.347,1.35,1.353,1.355,1.358,1.361,1.363,1.363,1.369,1.369,1.372,1.374,1.374,1.377,1.38,1.38,1.377,1.377,1.377,1.374,1.372,1.372,1.369,1.366,1.363,1.361,1.358,1.358,0,0,2.394,2.394,2.394,2.394,2.394,2.394,2.403,2.403,2.411,2.411,2.411,2.42,2.42,2.42,2.428,2.428,2.428,2.428,2.437,2.437,2.437,2.437,2.437,2.437,2.428,2.428,2.42,2.42,2.42,2.42,2.411,2.411,2.403,2.403,2.403,2.403,2.403,2.403,2.403,2.403,2.403,2.403,2.403,2.411,2.411,2.411,2.411,2.411,2.411,2.411,2.411,2.411,2.411,2.411,2.411,2.411,2.42,2.42,2.42,2.42,2.42,2.42,2.428,2.428,2.428,2.428,2.428,2.428,2.428,2.428,2.428,2.428,2.428,2.42,2.42,2.42,2.42,2.42,2.42,2.42,2.428,2.437,2.446,2.454,2.472,2.49,2.517,2.536,2.564,2.583,2.603,2.613,2.633,2.643,2.653,2.664,2.664,2.664,2.664,2.664,2.664,2.653,2.653,2.653,2.653,2.653,2.653,2.653,2.643,2.623,2.574,2.49,2.386,0,0,2.121,2.082,2.057,2.039,2.027,2.015,2.015,2.009,2.009,2.003,2.003,2.003,1.998,1.998,1.986,0,0,1.941,1.936,1.93,1.925,1.925,1.92,1.914,1.914,1.914,1.93,2.003,2.089,0,0,2.403,2.536,2.664,2.684,2.684,2.674,2.664,2.653,2.633,2.623,2.613,0,2.337,2.128,0,1.79,1.749,1.727,1.714,1.709,1.701,1.693,1.688,1.684,1.68,1.676,1.672,1.672,1.672,0,0,2.716,2.716,2.716,2.716,2.716,2.727,2.727,2.738,2.749,2.76,2.771,2.782,2.793,0,0,0,0,0,0,0,0,1.527,1.52,1.517,1.517,1.514,1.51,1.51,1.51,1.507,1.507,1.504,1.507,1.507,1.507,0,2.674,2.674,2.674,2.674,2.664,2.664,2.664,2.653,2.653,2.653,2.664,2.674,2.684,2.695,2.705,2.716,2.727,2.738,2.738,2.738,2.738,2.738,0,0,0,0,0,0,0,0,0,0,0,0,1.273,1.273,1.275,1.275,1.273,1.275,1.275,1.275,1.277,1.28,1.28,1.28,1.28,1.282,1.282,1.284,0,0,0,0,2.283,2.283,2.283,2.283,2.283,2.275,2.275,2.275,2.275,2.268,2.268,2.268,2.261,2.261,2.253,2.246,2.238,2.231,2.224,2.217,2.21
1.334,1.334,1.334,1.334,1.334,1.334,1.337,1.34,1.34,1.34,1.342,1.342,1.345,1.347,1.347,1.347,1.35,1.35,1.353,1.353,1.353,1.353,1.353,1.353,1.353,1.355,1.355,1.355,1.355,1.355,1.355,1.355,1.355,1.353,1.353,1.353,1.353,1.353,1.35,1.35,1.35,1.347,1.347,1.347,1.347,1.347,1.347,1.345,1.345,1.345,1.342,1.342,1.342,1.34,1.337,1.337,1.334,1.334,1.332,1.332,1.329,1.329,1.329,1.327,1.327,1.327,1.327,1.327,1.327,1.327,1.327,1.327,1.327,1.324,1.324,1.324,1.322,1.322,1.322,1.319,1.319,1.319,1.319,1.316,1.316,1.314,1.314,1.314,1.314,1.311,1.311,1.311,1.311,1.309,1.309,1.309,1.306,1.306,1.306,1.306,1.306,1.306,1.306,1.306,1.309,1.309,1.309,1.309,1.309,1.309,1.309,1.309,1.311,1.309,1.309,1.309,1.309,1.309,1.309,1.306,1.306,1.306,1.306,1.306,1.306,1.306,1.306,1.306,1.309,1.309,1.309,1.309,1.311,1.311,1.311,1.311,1.311,1.311,1.311,1.309,1.309,1.309,1.309,1.306,1.306,1.306,1.306,1.306,1.306,1.306,1.306,1.306,1.306,1.306,1.309,1.309,1.309,1.309,1.309,1.311,1.309,1.309,1.309,1.309,1.306,1.306,1.304,1.304,1.304,1.302,1.302,1.299,1.299,1.297,1.294,1.294,1.292,1.289,1.289,1.287,1.287,1.287,1.287,1.284,1.284,1.284,1.284,1.284,1.287,1.287,1.287,1.289,1.289,1.292,1.292,1.292,1.294,1.294,1.294,1.297,1.297,1.299,1.299,1.299,1.299,1.299,1.302,1.302,1.302,1.304,1.304,1.304,1.306,1.306,1.306,1.309,1.311,1.311,1.314,1.314,1.316,1.316,1.319,1.322,1.322,1.324,1.324,1.327,1.329,1.332,1.334,1.334,1.337,1.34,1.342,1.345,1.347,1.35,1.353,1.355,1.358,1.361,1.363,1.366,1.369,1.372,1.374,1.374,1.377,1.38,1.383,1.385,1.385,1.385,1.383,1.383,1.383,1.38,1.38,1.377,1.372,1.372,1.366,0,0,2.403,2.403,2.403,2.403,2.403,2.403,2.403,2.403,2.403,2.403,2.403,2.411,2.411,2.42,2.42,2.42,2.42,2.428,2.428,2.428,2.428,2.428,2.428,2.428,2.428,2.428,2.428,2.42,2.42,2.42,2.42,2.411,2.411,2.411,2.403,2.403,2.403,2.403,2.403,2.403,2.403,2.403,2.403,2.403,2.403,2.403,2.411,2.411,2.411,2.411,2.411,2.411,2.411,2.411,2.411,2.411,2.42,2.42,2.42,2.42,2.42,2.42,2.42,2.42,2.42,2.428,2.428,2.428,2.428,2.428,2.428,2.428,2.428,2.428,2.42,2.42,2.42,2.42,2.42,2.42,2.42,2.42,2.42,2.428,2.437,2.446,2.454,2.472,2.49,2.508,2.536,2.555,2.574,2.593,2.613,2.623,2.643,2.653,2.664,2.664,2.664,2.664,2.664,2.664,2.664,2.653,2.653,2.653,2.653,2.643,2.643,2.633,2.623,2.564,2.481,0,0,0,2.121,2.082,2.057,2.045,2.027,2.021,2.015,2.015,2.009,2.003,2.003,2.003,1.998,0,0,0,0,1.936,1.93,1.925,1.925,1.92,1.92,1.92,1.92,1.92,1.936,2.021,2.114,0,0,2.437,2.564,2.684,2.684,2.684,2.674,2.674,2.643,2.633,2.623,2.613,0,0,0,0,1.79,1.744,1.727,1.714,1.709,1.701,1.693,1.688,1.68,1.676,1.672,1.672,1.668,1.668,0,2.727,2.716,2.716,2.716,2.716,2.716,2.727,2.727,2.738,2.76,2.76,2.771,2.782,0,0,0,0,0,0,0,0,1.53,1.527,1.52,1.517,1.517,1.514,1.514,1.51,1.51,1.51,1.51,1.51,1.51,1.514,1.514,0,0,2.664,2.664,2.664,2.664,2.664,2.664,2.653,2.653,2.653,2.664,2.674,2.684,2.695,2.705,2.716,2.727,2.727,2.727,2.727,2.727,2.727,0,0,0,0,0,0,0,0,0,0,0,0,1.268,1.273,1.273,1.273,1.273,1.275,1.275,1.275,1.277,1.277,1.277,1.28,1.28,1.28,1.282,1.282,0,0,0,2.283,2.283,2.283,2.283,2.283,2.283,2.275,2.275,2.275,2.275,2.268,2.268,2.268,2.261,2.261,2.253,2.246,2.238,2.231,2.224,2.217,2.21
1.337,1.337,1.337,1.337,1.34,1.34,1.34,1.342,1.342,1.342,1.345,1.347,1.347,1.347,1.35,1.353,1.353,1.353,1.353,1.353,1.355,1.355,1.355,1.355,1.355,1.358,1.358,1.358,1.358,1.358,1.358,1.358,1.358,1.358,1.358,1.358,1.355,1.355,1.355,1.355,1.353,1.353,1.353,1.353,1.35,1.35,1.35,1.347,1.347,1.347,1.347,1.345,1.345,1.342,1.342,1.34,1.34,1.337,1.337,1.337,1.334,1.334,1.334,1.332,1.332,1.332,1.332,1.332,1.332,1.332,1.332,1.329,1.329,1.329,1.329,1.327,1.327,1.327,1.324,1.324,1.324,1.322,1.322,1.322,1.322,1.319,1.319,1.319,1.316,1.316,1.314,1.314,1.314,1.314,1.314,1.311,1.311,1.311,1.309,1.309,1.309,1.309,1.309,1.309,1.311,1.311,1.311,1.311,1.311,1.311,1.311,1.311,1.311,1.311,1.311,1.311,1.311,1.311,1.311,1.309,1.309,1.309,1.309,1.309,1.311,1.311,1.311,1.311,1.314,1.314,1.314,1.316,1.316,1.316,1.316,1.316,1.316,1.316,1.316,1.316,1.314,1.314,1.314,1.311,1.311,1.311,1.311,1.311,1.309,1.309,1.309,1.309,1.309,1.311,1.311,1.311,1.311,1.314,1.314,1.314,1.314,1.314,1.314,1.314,1.311,1.311,1.309,1.309,1.306,1.304,1.304,1.302,1.302,1.299,1.299,1.297,1.294,1.294,1.292,1.292,1.289,1.289,1.289,1.289,1.289,1.289,1.289,1.289,1.289,1.289,1.289,1.292,1.292,1.294,1.294,1.297,1.297,1.299,1.299,1.299,1.302,1.302,1.304,1.304,1.304,1.304,1.306,1.306,1.306,1.306,1.309,1.309,1.309,1.311,1.311,1.314,1.314,1.316,1.319,1.319,1.322,1.322,1.324,1.327,1.327,1.329,1.329,1.332,1.334,1.337,1.337,1.34,1.342,1.345,1.347,1.35,1.353,1.355,1.358,1.361,1.363,1.366,1.369,1.372,1.374,1.377,1.38,1.383,1.385,1.388,1.388,1.388,1.391,1.388,1.391,1.388,1.388,1.385,1.383,1.38,1.377,0,0,0,2.403,2.411,2.411,2.411,2.403,2.403,2.403,2.403,2.403,2.403,2.411,2.411,2.411,2.42,2.42,2.42,2.42,2.42,2.428,2.428,2.428,2.428,2.428,2.428,2.428,2.428,2.428,2.42,2.42,2.42,2.411,2.411,2.411,2.403,2.403,2.403,2.403,2.403,2.403,2.403,2.403,2.403,2.403,2.403,2.403,2.403,2.403,2.411,2.411,2.411,2.411,2.411,2.411,2.411,2.411,2.411,2.42,2.42,2.42,2.42,2.42,2.42,2.42,2.42,2.42,2.42,2.428,2.428,2.428,2.428,2.428,2.42,2.42,2.42,2.42,2.42,2.42,2.42,2.42,2.42,2.42,2.42,2.42,2.42,2.428,2.437,2.446,2.454,2.472,2.49,2.508,2.526,2.555,2.574,2.593,2.603,2.623,2.633,2.643,2.653,2.664,2.664,2.664,2.664,2.664,2.664,2.653,2.653,2.653,2.653,2.643,2.643,2.633,2.623,2.564,2.472,0,0,0,0,2.082,2.057,2.045,2.033,2.021,2.015,2.015,2.009,2.009,2.003,0,0,0,0,0,0,0,1.93,1.925,1.92,1.92,1.914,1.914,1.92,1.92,1.947,2.033,2.128,0,2.337,2.454,2.583,2.695,2.684,2.684,2.674,2.664,2.653,2.633,2.613,2.603,0,0,0,0,0,1.744,1.727,1.709,1.705,1.701,1.693,1.684,1.68,1.676,1.672,1.668,1.668,1.664,0,0,0,2.716,2.716,2.716,2.727,2.727,2.738,2.749,2.76,2.76,2.771,2.771,2.782,0,0,0,0,0,0,0,0,1.524,1.52,1.517,1.517,1.514,1.514,1.514,1.514,1.514,1.514,1.517,1.517,1.52,1.524,0,0,2.653,2.653,2.653,2.653,2.664,2.653,2.653,2.653,2.664,2.664,2.674,2.684,2.695,2.705,2.705,2.716,2.716,2.727,2.727,2.716,2.705,0,0,0,0,0,0,0,0,0,0,0,0,0,0,0,1.273,1.273,1.275,1.275,1.275,1.277,1.277,1.277,1.28,1.28,1.28,1.282,1.282,0,0,0,2.283,2.283,2.283,2.283,2.283,2.283,2.275,2.275,2.275,2.275,2.275,2.268,2.268,2.268,2.261,2.253,2.253,2.246,2.238,2.231,2.224,2.217
1.342,1.34,1.34,1.342,1.342,1.342,1.342,1.345,1.345,1.347,1.347,1.35,1.353,1.353,1.353,1.355,1.358,1.358,1.358,1.358,1.358,1.358,1.358,1.358,1.361,1.361,1.363,1.363,1.363,1.363,1.363,1.363,1.363,1.363,1.361,1.361,1.361,1.361,1.361,1.358,1.358,1.355,1.355,1.355,1.355,1.355,1.353,1.353,1.353,1.35,1.35,1.35,1.347,1.347,1.347,1.345,1.345,1.342,1.342,1.34,1.34,1.34,1.337,1.337,1.337,1.337,1.334,1.334,1.334,1.334,1.334,1.334,1.334,1.332,1.332,1.332,1.329,1.329,1.329,1.327,1.327,1.327,1.327,1.324,1.324,1.324,1.324,1.322,1.322,1.322,1.319,1.319,1.319,1.316,1.316,1.316,1.314,1.314,1.314,1.314,1.314,1.314,1.314,1.314,1.314,1.314,1.311,1.314,1.311,1.311,1.311,1.314,1.314,1.314,1.314,1.314,1.314,1.314,1.314,1.314,1.314,1.314,1.314,1.314,1.314,1.314,1.314,1.316,1.319,1.319,1.319,1.319,1.322,1.322,1.322,1.322,1.322,1.322,1.322,1.319,1.319,1.319,1.319,1.316,1.316,1.316,1.314,1.314,1.314,1.314,1.314,1.314,1.314,1.314,1.316,1.316,1.316,1.316,1.319,1.319,1.319,1.316,1.316,1.316,1.316,1.316,1.314,1.314,1.311,1.309,1.306,1.306,1.304,1.304,1.302,1.299,1.299,1.297,1.297,1.294,1.294,1.292,1.292,1.292,1.292,1.292,1.292,1.292,1.292,1.294,1.294,1.294,1.294,1.297,1.299,1.299,1.302,1.302,1.304,1.304,1.306,1.306,1.306,1.309,1.309,1.309,1.311,1.311,1.311,1.311,1.314,1.314,1.316,1.316,1.319,1.319,1.322,1.322,1.324,1.324,1.324,1.327,1.329,1.332,1.332,1.334,1.334,1.337,1.34,1.342,1.342,1.345,1.347,1.35,1.353,1.355,1.358,1.361,1.363,1.366,1.369,1.372,1.374,1.377,1.38,1.383,1.385,1.388,1.388,1.391,1.394,1.394,1.394,1.394,1.394,1.391,1.388,1.388,0,0,0,0,2.403,2.403,2.411,2.411,2.411,2.411,2.411,2.411,2.403,2.411,2.411,2.411,2.411,2.411,2.42,2.42,2.42,2.42,2.42,2.42,2.428,2.428,2.428,2.428,2.428,2.428,2.428,2.42,2.42,2.42,2.42,2.411,2.411,2.403,2.403,2.403,2.403,2.403,2.403,2.403,2.403,2.403,2.403,2.403,2.403,2.403,2.403,2.403,2.403,2.411,2.411,2.411,2.411,2.411,2.411,2.411,2.411,2.42,2.42,2.42,2.42,2.42,2.42,2.42,2.42,2.42,2.42,2.42,2.42,2.428,2.428,2.42,2.42,2.42,2.42,2.42,2.42,2.42,2.42,2.42,2.42,2.42,2.42,2.42,2.42,2.42,2.428,2.437,2.446,2.454,2.472,2.49,2.508,2.526,2.545,2.564,2.583,2.603,2.613,2.633,2.643,2.653,2.664,2.664,2.664,2.664,2.664,2.664,2.653,2.653,2.653,2.653,2.643,2.633,2.623,2.613,2.555,0,0,0,2.189,2.114,2.082,2.057,2.045,2.039,2.027,2.021,2.015,2.015,2.009,2.003,0,0,0,0,0,0,1.936,1.925,1.92,1.914,1.914,1.914,1.914,1.914,1.92,1.952,2.039,2.141,0,2.353,2.472,2.603,2.684,2.684,2.684,2.674,2.664,2.653,2.643,2.623,0,0,0,0,0,0,1.74,1.722,1.709,1.705,1.701,1.693,1.684,1.676,1.672,1.672,1.668,1.668,1.664,0,0,2.727,2.716,2.716,2.716,2.727,2.738,2.738,2.749,2.749,2.76,2.76,2.76,2.76,0,0,0,0,0,0,0,0,0,1.517,1.514,1.514,1.514,1.514,1.514,1.517,1.517,1.52,1.52,1.524,1.524,1.527,0,0,2.643,2.653,2.643,2.653,2.653,2.653,2.653,2.653,2.664,2.664,2.674,2.684,2.695,2.705,2.705,2.716,2.716,2.716,2.716,2.705,2.705,2.705,0,0,0,0,0,0,0,0,0,0,0,0,0,0,1.273,1.273,1.275,1.275,1.277,1.277,1.28,1.277,1.28,1.28,1.282,1.282,1.28,1.282,1.282,0,2.283,2.283,2.283,2.283,2.283,2.283,2.275,2.275,2.275,2.275,2.275,2.268,2.268,2.268,2.261,2.261,2.253,2.246,2.238,2.231,2.224,2.217
1.347,1.345,1.345,1.345,1.345,1.347,1.347,1.35,1.35,1.35,1.353,1.355,1.355,1.355,1.358,1.361,1.361,1.361,1.361,1.363,1.363,1.363,1.363,1.363,1.363,1.366,1.366,1.366,1.366,1.366,1.366,1.366,1.366,1.366,1.366,1.366,1.363,1.363,1.363,1.363,1.363,1.361,1.358,1.358,1.358,1.355,1.355,1.355,1.355,1.355,1.353,1.353,1.353,1.353,1.35,1.35,1.35,1.35,1.347,1.347,1.345,1.345,1.342,1.342,1.342,1.342,1.34,1.34,1.34,1.34,1.337,1.337,1.337,1.337,1.337,1.334,1.334,1.334,1.332,1.332,1.332,1.329,1.329,1.329,1.327,1.327,1.327,1.327,1.327,1.324,1.324,1.324,1.322,1.322,1.322,1.319,1.319,1.319,1.319,1.319,1.316,1.316,1.316,1.316,1.316,1.316,1.314,1.314,1.314,1.314,1.316,1.316,1.316,1.316,1.316,1.316,1.316,1.316,1.316,1.316,1.316,1.316,1.316,1.316,1.319,1.319,1.319,1.322,1.322,1.324,1.324,1.324,1.324,1.324,1.324,1.327,1.324,1.324,1.324,1.324,1.324,1.322,1.322,1.322,1.322,1.319,1.319,1.319,1.319,1.319,1.319,1.319,1.319,1.319,1.322,1.322,1.322,1.322,1.322,1.322,1.322,1.324,1.322,1.322,1.322,1.322,1.319,1.319,1.316,1.314,1.311,1.309,1.309,1.306,1.304,1.304,1.302,1.302,1.299,1.299,1.297,1.297,1.294,1.294,1.294,1.294,1.294,1.294,1.297,1.297,1.297,1.299,1.299,1.299,1.302,1.302,1.304,1.304,1.306,1.309,1.309,1.311,1.311,1.314,1.314,1.314,1.316,1.316,1.319,1.319,1.319,1.322,1.322,1.324,1.324,1.327,1.327,1.329,1.329,1.329,1.332,1.332,1.334,1.337,1.34,1.34,1.34,1.342,1.345,1.347,1.347,1.35,1.353,1.355,1.355,1.358,1.361,1.363,1.366,1.369,1.372,1.374,1.377,1.38,1.383,1.385,1.388,1.391,1.394,1.394,1.394,1.397,1.397,1.397,1.394,1.391,1.391,0,0,0,0,2.394,2.394,2.403,2.411,2.411,2.411,2.411,2.411,2.411,2.411,2.411,2.411,2.411,2.42,2.42,2.42,2.42,2.42,2.42,2.42,2.42,2.42,2.42,2.42,2.42,2.42,2.42,2.42,2.42,2.42,2.411,2.411,2.411,2.403,2.403,2.403,2.403,2.403,2.403,2.403,2.403,2.403,2.403,2.403,2.403,2.403,2.403,2.403,2.403,2.403,2.403,2.411,2.411,2.411,2.411,2.411,2.411,2.411,2.411,2.42,2.42,2.42,2.42,2.42,2.42,2.42,2.42,2.42,2.42,2.42,2.42,2.42,2.42,2.42,2.42,2.42,2.42,2.42,2.42,2.42,2.42,2.42,2.42,2.42,2.42,2.42,2.428,2.437,2.446,2.454,2.454,2.472,2.49,2.508,2.526,2.545,2.564,2.583,2.603,2.613,2.633,2.643,2.653,2.653,2.664,2.664,2.664,2.664,2.664,2.653,2.653,2.653,2.653,2.643,2.633,2.623,2.603,2.545,0,2.361,2.275,2.196,2.114,2.082,2.057,2.051,2.039,2.033,2.027,2.021,2.015,2.009,2.009,2.009,0,0,0,0,1.947,1.93,1.925,1.914,1.914,1.909,1.909,1.909,1.914,1.914,1.963,2.045,2.141,0,0,2.472,2.603,2.684,2.684,2.684,2.674,2.664,2.653,2.643,2.633,0,0,0,0,0,0,1.727,1.718,1.705,1.705,1.697,1.688,1.684,1.676,1.676,1.672,1.668,1.668,1.668,0,2.727,2.727,2.727,2.727,2.727,2.727,2.738,2.738,2.749,2.749,2.749,2.749,2.749,2.749,0,0,0,0,0,0,0,0,0,1.517,1.514,1.514,1.514,1.514,1.517,1.517,1.52,1.524,1.524,1.527,1.527,1.53,0,0,2.633,2.643,2.643,2.643,2.643,2.643,2.653,2.653,2.653,2.664,2.674,2.684,2.684,2.695,2.705,2.705,2.705,2.705,2.705,2.705,2.695,0,0,0,0,0,0,0,0,0,0,0,0,0,0,0,1.275,1.275,1.275,1.277,1.277,1.277,1.28,1.277,1.28,1.282,1.282,1.282,1.282,1.282,1.282,0,2.283,2.283,2.283,2.283,2.283,2.283,2.283,2.275,2.275,2.275,2.275,2.268,2.268,2.268,2.261,2.261,2.253,2.246,2.246,2.238,2.231,2.224
1.35,1.35,1.35,1.35,1.35,1.353,1.353,1.353,1.355,1.358,1.358,1.358,1.361,1.363,1.363,1.363,1.366,1.366,1.369,1.369,1.369,1.369,1.369,1.369,1.369,1.369,1.369,1.372,1.372,1.372,1.372,1.372,1.372,1.372,1.372,1.372,1.369,1.369,1.369,1.366,1.366,1.363,1.363,1.363,1.361,1.361,1.361,1.358,1.358,1.358,1.358,1.358,1.355,1.355,1.355,1.355,1.355,1.353,1.353,1.353,1.353,1.35,1.35,1.347,1.347,1.345,1.345,1.345,1.345,1.342,1.342,1.342,1.342,1.34,1.34,1.34,1.337,1.337,1.337,1.334,1.334,1.334,1.332,1.332,1.332,1.329,1.329,1.329,1.329,1.329,1.329,1.329,1.327,1.327,1.327,1.324,1.324,1.324,1.324,1.322,1.322,1.322,1.319,1.319,1.319,1.319,1.319,1.319,1.319,1.319,1.319,1.319,1.319,1.319,1.319,1.319,1.319,1.319,1.319,1.319,1.319,1.319,1.319,1.322,1.322,1.322,1.324,1.324,1.324,1.327,1.327,1.327,1.327,1.329,1.329,1.329,1.329,1.329,1.329,1.329,1.327,1.327,1.327,1.327,1.327,1.324,1.324,1.324,1.324,1.324,1.324,1.324,1.324,1.324,1.324,1.324,1.324,1.324,1.327,1.327,1.327,1.327,1.327,1.327,1.327,1.327,1.327,1.324,1.322,1.319,1.316,1.314,1.311,1.311,1.309,1.306,1.304,1.304,1.302,1.302,1.299,1.299,1.297,1.297,1.297,1.297,1.299,1.299,1.299,1.299,1.302,1.302,1.304,1.304,1.304,1.306,1.306,1.309,1.311,1.311,1.314,1.316,1.316,1.319,1.319,1.322,1.322,1.324,1.324,1.327,1.327,1.327,1.329,1.329,1.332,1.332,1.334,1.334,1.337,1.337,1.34,1.34,1.342,1.345,1.345,1.345,1.347,1.347,1.35,1.353,1.353,1.355,1.355,1.358,1.361,1.363,1.366,1.369,1.372,1.374,1.374,1.377,1.383,1.383,1.385,1.388,1.391,1.394,1.394,1.394,1.397,1.397,1.397,1.397,1.394,0,0,0,0,2.37,2.378,2.386,2.394,2.403,2.403,2.411,2.42,2.42,2.42,2.42,2.42,2.42,2.42,2.42,2.42,2.42,2.42,2.42,2.42,2.42,2.42,2.42,2.42,2.42,2.42,2.42,2.42,2.42,2.42,2.411,2.411,2.411,2.411,2.403,2.403,2.403,2.403,2.403,2.403,2.403,2.403,2.403,2.403,2.403,2.403,2.403,2.403,2.403,2.403,2.403,2.403,2.403,2.403,2.403,2.411,2.411,2.411,2.411,2.411,2.411,2.411,2.411,2.411,2.411,2.411,2.411,2.411,2.411,2.411,2.411,2.411,2.411,2.411,2.411,2.411,2.411,2.411,2.411,2.411,2.411,2.411,2.411,2.411,2.42,2.42,2.42,2.42,2.428,2.437,2.446,2.454,2.463,2.472,2.49,2.508,2.526,2.545,2.564,2.583,2.593,2.613,2.633,2.643,2.653,2.653,2.664,2.664,2.664,2.664,2.664,2.664,2.653,2.653,2.643,2.643,2.623,2.613,2.583,2.526,2.446,2.353,2.275,2.196,2.121,2.089,2.064,2.051,2.045,2.033,2.027,2.021,2.021,2.015,2.015,2.015,2.009,0,1.975,1.958,1.941,1.93,1.925,1.914,1.909,1.909,1.909,1.909,1.909,1.914,1.963,2.051,2.141,0,2.353,2.472,2.593,2.684,2.684,2.684,2.674,2.664,2.653,2.653,2.653,0,0,0,0,0,0,1.714,1.714,1.705,1.701,1.697,1.688,1.684,1.68,1.676,1.672,1.672,1.668,1.668,0,2.716,2.727,2.727,2.727,2.738,2.738,2.738,2.738,2.749,2.749,2.749,2.749,2.738,2.749,2.738,0,0,0,0,0,0,0,0,1.514,1.514,1.514,1.514,1.514,1.514,1.517,1.52,1.524,1.524,1.527,1.53,1.534,0,2.623,2.623,2.633,2.633,2.633,2.643,2.643,2.653,2.653,2.653,2.664,2.664,2.674,2.684,2.695,2.705,2.705,2.705,2.705,2.705,2.705,2.695,0,0,0,0,0,0,0,0,0,0,0,0,0,0,0,1.277,1.277,1.28,1.277,1.277,1.28,1.28,1.28,1.282,1.282,1.282,1.282,1.282,1.282,1.282,0,2.283,2.283,2.283,2.283,2.283,2.283,2.283,2.283,2.275,2.275,2.275,2.268,2.268,2.268,2.261,2.261,2.253,2.246,2.246,2.238,2.231,2.224
1.358,1.358,1.358,1.358,1.358,1.358,1.361,1.361,1.361,1.363,1.363,1.366,1.366,1.366,1.369,1.372,1.372,1.372,1.374,1.374,1.374,1.374,1.374,1.374,1.374,1.374,1.374,1.374,1.374,1.374,1.374,1.374,1.374,1.374,1.374,1.374,1.374,1.374,1.372,1.372,1.369,1.369,1.366,1.366,1.366,1.366,1.363,1.363,1.363,1.363,1.363,1.363,1.361,1.361,1.361,1.361,1.361,1.361,1.358,1.358,1.355,1.355,1.355,1.355,1.353,1.35,1.35,1.35,1.347,1.347,1.347,1.347,1.345,1.345,1.345,1.342,1.342,1.342,1.34,1.34,1.337,1.337,1.337,1.334,1.334,1.334,1.334,1.332,1.332,1.334,1.334,1.332,1.332,1.332,1.332,1.329,1.329,1.329,1.329,1.327,1.327,1.327,1.324,1.324,1.324,1.322,1.322,1.322,1.322,1.322,1.322,1.322,1.324,1.324,1.324,1.324,1.324,1.324,1.322,1.322,1.322,1.322,1.322,1.324,1.324,1.327,1.327,1.329,1.329,1.329,1.332,1.332,1.332,1.332,1.332,1.334,1.334,1.332,1.332,1.332,1.332,1.332,1.332,1.332,1.329,1.329,1.329,1.329,1.329,1.329,1.329,1.329,1.329,1.329,1.329,1.329,1.329,1.329,1.329,1.329,1.332,1.332,1.332,1.332,1.332,1.332,1.332,1.329,1.327,1.324,1.322,1.319,1.316,1.314,1.311,1.309,1.309,1.306,1.304,1.304,1.302,1.302,1.302,1.302,1.302,1.302,1.302,1.302,1.302,1.304,1.304,1.306,1.306,1.309,1.309,1.311,1.311,1.314,1.316,1.316,1.319,1.322,1.324,1.324,1.327,1.327,1.329,1.332,1.332,1.332,1.334,1.334,1.337,1.337,1.337,1.34,1.34,1.342,1.342,1.345,1.345,1.347,1.347,1.35,1.35,1.353,1.353,1.355,1.355,1.358,1.358,1.361,1.361,1.363,1.363,1.366,1.369,1.372,1.374,1.374,1.377,1.38,1.383,1.385,1.388,1.391,1.394,1.394,1.394,1.397,1.397,1.397,1.397,1.397,1.397,0,0,0,2.361,2.37,2.378,2.386,2.394,2.403,2.411,2.411,2.411,2.42,2.42,2.42,2.42,2.42,2.42,2.42,2.42,2.42,2.42,2.42,2.42,2.42,2.42,2.42,2.42,2.42,2.42,2.42,2.42,2.411,2.411,2.411,2.411,2.411,2.403,2.403,2.403,2.403,2.403,2.403,2.403,2.403,2.403,2.403,2.403,2.403,2.403,2.403,2.403,2.403,2.403,2.403,2.403,2.403,2.403,2.403,2.403,2.403,2.403,2.403,2.403,2.403,2.403,2.403,2.403,2.403,2.403,2.403,2.403,2.403,2.403,2.403,2.403,2.403,2.403,2.403,2.403,2.403,2.411,2.411,2.411,2.411,2.411,2.411,2.411,2.411,2.42,2.42,2.42,2.428,2.437,2.446,2.454,2.463,2.472,2.49,2.508,2.526,2.545,2.555,2.574,2.593,2.613,2.633,2.643,2.653,2.653,2.664,2.664,2.674,2.674,2.664,2.664,2.653,2.653,2.643,2.633,2.623,2.603,2.574,2.499,2.428,2.345,2.268,2.189,2.128,2.095,2.076,2.057,2.045,2.039,2.027,2.027,2.021,2.015,2.021,2.021,2.015,2.009,1.98,1.958,1.947,1.936,1.93,1.92,1.909,1.909,1.904,1.909,1.909,1.914,1.969,2.051,0,0,2.353,2.472,2.593,2.684,2.684,2.684,2.684,2.664,2.664,2.664,2.653,2.653,0,0,0,0,0,1.709,1.705,1.701,1.701,1.697,1.688,1.684,1.68,1.68,1.676,1.676,1.672,1.672,0,2.727,2.727,2.727,2.727,2.738,2.738,2.738,2.738,2.749,2.749,2.738,2.738,2.738,2.738,2.727,0,0,0,0,0,0,0,0,1.514,1.514,1.514,1.514,1.514,1.514,1.517,1.52,1.524,1.524,1.527,1.53,1.534,0,2.613,2.623,2.633,2.633,2.643,2.643,2.643,2.653,2.653,2.653,2.664,2.664,2.674,2.684,2.684,2.695,2.705,2.705,2.705,2.695,2.695,0,0,0,0,0,0,0,0,0,0,0,0,0,0,0,0,1.277,1.277,1.277,1.277,1.28,1.28,1.28,1.28,1.282,1.282,1.282,1.282,1.282,1.284,1.284,0,2.283,2.283,2.283,2.283,2.283,2.283,2.283,2.283,2.275,2.275,2.275,2.268,2.268,2.268,2.261,2.261,2.253,2.253,2.246,2.238,2.231,2.224
1.363,1.363,1.363,1.366,1.366,1.366,1.369,1.369,1.369,1.369,1.372,1.372,1.374,1.374,1.377,1.377,1.377,1.377,1.38,1.38,1.38,1.38,1.38,1.38,1.38,1.38,1.38,1.38,1.38,1.38,1.38,1.38,1.38,1.38,1.38,1.377,1.377,1.377,1.377,1.374,1.374,1.372,1.372,1.369,1.369,1.369,1.369,1.369,1.366,1.366,1.366,1.366,1.366,1.366,1.366,1.366,1.366,1.363,1.363,1.363,1.363,1.361,1.358,1.358,1.358,1.355,1.353,1.353,1.35,1.35,1.35,1.35,1.347,1.347,1.347,1.347,1.345,1.345,1.342,1.342,1.342,1.34,1.34,1.34,1.337,1.337,1.337,1.337,1.337,1.337,1.337,1.337,1.337,1.337,1.334,1.334,1.334,1.334,1.332,1.332,1.332,1.332,1.329,1.327,1.327,1.327,1.327,1.327,1.327,1.327,1.327,1.327,1.327,1.327,1.327,1.327,1.327,1.327,1.327,1.327,1.327,1.327,1.327,1.327,1.327,1.329,1.329,1.332,1.332,1.334,1.334,1.334,1.334,1.334,1.334,1.334,1.334,1.334,1.334,1.337,1.337,1.337,1.334,1.334,1.334,1.334,1.334,1.334,1.334,1.332,1.332,1.332,1.334,1.334,1.332,1.332,1.332,1.334,1.334,1.334,1.337,1.337,1.337,1.337,1.34,1.337,1.337,1.334,1.332,1.329,1.327,1.324,1.322,1.319,1.316,1.314,1.311,1.309,1.306,1.306,1.304,1.304,1.304,1.304,1.304,1.304,1.306,1.306,1.306,1.309,1.309,1.311,1.311,1.314,1.314,1.316,1.319,1.319,1.322,1.324,1.327,1.329,1.332,1.332,1.334,1.334,1.337,1.337,1.34,1.34,1.34,1.342,1.342,1.345,1.345,1.347,1.347,1.347,1.35,1.35,1.353,1.353,1.355,1.355,1.358,1.358,1.358,1.361,1.361,1.363,1.363,1.363,1.366,1.366,1.369,1.369,1.372,1.374,1.374,1.377,1.38,1.383,1.385,1.385,1.388,1.391,1.394,1.397,1.397,1.4,1.4,1.4,1.4,1.4,1.397,0,0,0,2.353,2.361,2.378,2.378,2.386,2.394,2.403,2.411,2.411,2.411,2.42,2.42,2.42,2.42,2.42,2.42,2.42,2.42,2.42,2.42,2.42,2.42,2.42,2.42,2.42,2.411,2.411,2.411,2.411,2.411,2.411,2.411,2.403,2.403,2.403,2.403,2.394,2.394,2.394,2.394,2.394,2.394,2.394,2.403,2.403,2.403,2.403,2.403,2.403,2.403,2.403,2.403,2.403,2.403,2.403,2.403,2.403,2.403,2.394,2.394,2.394,2.394,2.394,2.394,2.394,2.394,2.394,2.394,2.394,2.394,2.394,2.394,2.394,2.394,2.394,2.394,2.394,2.394,2.394,2.394,2.394,2.403,2.403,2.403,2.411,2.411,2.411,2.411,2.42,2.428,2.437,2.446,2.454,2.454,2.472,2.49,2.508,2.526,2.536,2.555,2.574,2.583,2.613,2.623,2.643,2.653,2.653,2.653,2.664,2.674,2.674,2.664,2.664,2.653,2.653,2.643,2.633,2.623,2.603,2.564,2.49,2.411,2.337,2.268,2.189,2.128,2.095,2.076,2.057,2.045,2.039,2.033,2.027,2.021,2.015,2.021,2.021,0,2.003,1.986,1.963,1.952,1.941,1.936,1.92,1.914,1.909,1.904,1.904,1.909,1.909,1.975,2.057,0,0,2.353,2.481,2.613,2.695,2.684,2.684,2.684,2.674,2.674,2.664,2.664,2.664,0,0,0,0,0,1.705,1.705,1.701,1.697,1.697,1.688,1.684,1.684,1.68,1.68,1.676,1.676,0,0,2.727,2.738,2.738,2.738,2.738,2.738,2.738,2.738,2.749,2.749,2.738,2.738,2.738,2.727,2.727,2.716,0,0,0,0,0,0,0,0,1.514,1.514,1.514,1.514,1.514,1.517,1.52,1.524,1.524,1.527,1.53,1.534,0,2.613,2.623,2.633,2.633,2.633,2.643,2.643,2.653,2.653,2.664,2.664,2.664,2.674,2.684,2.684,2.695,2.695,2.695,2.695,2.695,2.695,2.695,2.684,0,0,0,0,0,0,0,0,0,0,0,0,0,0,1.277,1.277,1.277,1.277,1.28,1.28,1.28,1.28,1.282,1.282,1.284,1.284,1.284,1.284,1.284,0,2.283,2.283,2.283,2.283,2.283,2.283,2.283,2.283,2.275,2.275,2.275,2.268,2.268,2.268,2.261,2.261,2.253,2.246,2.246,2.238,2.231,2.224
1.372,1.372,1.372,1.372,1.374,1.374,1.377,1.377,1.377,1.38,1.38,1.38,1.383,1.383,1.383,1.385,1.385,1.385,1.388,1.388,1.388,1.388,1.388,1.388,1.385,1.385,1.385,1.385,1.385,1.385,1.385,1.385,1.383,1.383,1.383,1.383,1.383,1.383,1.38,1.38,1.38,1.38,1.377,1.377,1.374,1.374,1.372,1.372,1.372,1.372,1.369,1.369,1.369,1.369,1.369,1.369,1.369,1.369,1.369,1.369,1.366,1.366,1.363,1.363,1.361,1.361,1.358,1.358,1.355,1.355,1.353,1.353,1.35,1.35,1.35,1.35,1.35,1.347,1.347,1.345,1.345,1.342,1.342,1.342,1.34,1.34,1.34,1.34,1.34,1.342,1.342,1.342,1.34,1.34,1.34,1.34,1.34,1.337,1.337,1.337,1.337,1.334,1.334,1.332,1.332,1.329,1.329,1.329,1.329,1.329,1.329,1.329,1.329,1.329,1.329,1.329,1.329,1.329,1.329,1.329,1.329,1.329,1.329,1.329,1.332,1.332,1.332,1.334,1.334,1.334,1.334,1.337,1.337,1.337,1.337,1.337,1.337,1.337,1.337,1.34,1.34,1.34,1.34,1.34,1.34,1.34,1.34,1.337,1.337,1.337,1.337,1.337,1.337,1.337,1.337,1.337,1.337,1.337,1.337,1.34,1.34,1.342,1.342,1.342,1.342,1.342,1.342,1.34,1.337,1.334,1.332,1.329,1.327,1.324,1.322,1.316,1.316,1.314,1.311,1.309,1.309,1.306,1.306,1.309,1.309,1.309,1.309,1.311,1.311,1.314,1.314,1.316,1.319,1.319,1.322,1.324,1.327,1.329,1.329,1.332,1.334,1.337,1.34,1.342,1.342,1.345,1.345,1.347,1.347,1.347,1.347,1.35,1.35,1.353,1.353,1.355,1.355,1.358,1.358,1.358,1.361,1.361,1.361,1.363,1.363,1.363,1.366,1.366,1.366,1.369,1.369,1.369,1.369,1.369,1.372,1.372,1.372,1.377,1.377,1.38,1.38,1.385,1.385,1.388,1.391,1.394,1.397,1.397,1.397,1.4,1.4,1.4,1.402,1.402,0,0,0,2.345,2.345,2.353,2.361,2.378,2.386,2.386,2.394,2.403,2.411,2.411,2.411,2.411,2.411,2.411,2.411,2.411,2.411,2.411,2.411,2.411,2.411,2.411,2.411,2.411,2.403,2.403,2.403,2.403,2.403,2.403,2.403,2.403,2.403,2.403,2.394,2.394,2.386,2.386,2.386,2.386,2.386,2.386,2.386,2.386,2.394,2.394,2.394,2.394,2.394,2.394,2.394,2.394,2.394,2.394,2.394,2.394,2.394,2.394,2.394,2.386,2.386,2.386,2.386,2.386,2.386,2.386,2.386,2.386,2.386,2.386,2.386,2.386,2.386,2.386,2.386,2.386,2.386,2.386,2.386,2.386,2.386,2.394,2.394,2.394,2.394,2.394,2.394,2.403,2.403,2.42,2.428,2.437,2.446,2.454,2.472,2.49,2.499,2.517,2.536,2.545,2.564,2.583,2.603,2.623,2.633,2.643,2.653,2.653,2.664,2.664,2.674,2.664,2.664,2.653,2.653,2.643,2.643,2.623,2.603,2.564,2.49,2.411,2.337,2.268,2.203,2.134,2.102,2.076,2.057,2.045,2.039,2.033,2.027,2.027,2.021,2.021,2.021,0,0,1.986,1.969,1.952,1.947,1.936,1.925,1.92,1.914,1.909,1.909,1.909,1.92,1.986,2.07,2.161,0,2.37,2.49,2.623,2.695,2.695,2.695,2.695,2.684,2.674,2.674,2.674,2.674,0,0,0,0,0,0,1.701,1.697,1.697,1.693,1.688,1.688,1.684,1.684,1.684,1.68,1.68,1.68,0,2.738,2.738,2.738,2.738,2.738,2.738,2.749,2.749,2.738,2.749,2.738,2.738,2.738,2.727,2.727,0,0,0,0,0,0,0,0,1.514,1.514,1.514,1.514,1.514,1.514,1.517,1.52,1.524,1.527,1.527,1.53,1.534,0,2.603,2.623,2.623,2.623,2.633,2.643,2.653,2.643,2.653,2.664,2.664,2.664,2.674,2.684,2.684,2.695,2.695,2.695,2.695,2.695,2.695,2.695,2.684,0,0,0,0,0,0,0,0,0,0,0,0,0,0,1.277,1.277,1.277,1.28,1.28,1.28,1.282,1.282,1.282,1.284,1.284,1.287,1.287,1.287,1.284,0,2.283,2.283,2.283,2.283,2.283,2.283,2.283,2.283,2.275,2.275,2.275,2.268,2.268,2.261,2.261,2.261,2.253,2.246,2.246,2.238,2.231,2.224
1.38,1.38,1.383,1.383,1.383,1.385,1.385,1.388,1.388,1.388,1.391,1.391,1.391,1.391,1.394,1.394,1.394,1.394,1.397,1.397,1.397,1.397,1.397,1.394,1.394,1.394,1.391,1.391,1.391,1.388,1.388,1.388,1.388,1.388,1.388,1.388,1.388,1.385,1.385,1.385,1.385,1.383,1.383,1.383,1.38,1.38,1.377,1.377,1.374,1.374,1.374,1.374,1.374,1.374,1.372,1.372,1.372,1.372,1.372,1.372,1.372,1.369,1.369,1.366,1.366,1.363,1.361,1.361,1.361,1.358,1.358,1.355,1.355,1.355,1.353,1.353,1.353,1.35,1.35,1.35,1.347,1.347,1.347,1.345,1.345,1.345,1.345,1.345,1.345,1.345,1.345,1.345,1.345,1.345,1.345,1.342,1.342,1.342,1.342,1.34,1.34,1.34,1.337,1.337,1.334,1.334,1.334,1.334,1.334,1.334,1.334,1.334,1.334,1.334,1.334,1.334,1.334,1.334,1.334,1.332,1.332,1.332,1.334,1.334,1.334,1.334,1.334,1.337,1.337,1.337,1.337,1.337,1.34,1.34,1.34,1.34,1.34,1.34,1.34,1.342,1.342,1.342,1.342,1.342,1.342,1.342,1.342,1.342,1.342,1.342,1.34,1.34,1.34,1.34,1.34,1.34,1.34,1.342,1.342,1.342,1.345,1.345,1.347,1.347,1.347,1.347,1.347,1.345,1.342,1.34,1.337,1.334,1.329,1.327,1.324,1.322,1.319,1.319,1.316,1.314,1.314,1.311,1.311,1.311,1.314,1.314,1.314,1.316,1.319,1.322,1.322,1.324,1.327,1.329,1.329,1.332,1.334,1.337,1.34,1.342,1.345,1.347,1.347,1.35,1.35,1.353,1.353,1.355,1.355,1.355,1.358,1.358,1.361,1.361,1.363,1.363,1.366,1.366,1.366,1.369,1.369,1.369,1.369,1.369,1.369,1.372,1.372,1.372,1.372,1.372,1.374,1.374,1.374,1.374,1.374,1.374,1.377,1.377,1.38,1.38,1.38,1.383,1.385,1.388,1.391,1.397,1.397,1.4,1.4,1.402,1.402,1.402,1.405,0,0,0,2.329,2.329,2.345,2.353,2.353,2.361,2.37,2.386,2.394,2.394,2.403,2.403,2.403,2.403,2.403,2.403,2.403,2.403,2.403,2.403,2.403,2.403,2.403,2.403,2.403,2.394,2.394,2.394,2.394,2.394,2.394,2.394,2.394,2.394,2.394,2.386,2.386,2.386,2.386,2.386,2.386,2.386,2.386,2.386,2.386,2.386,2.386,2.386,2.386,2.386,2.386,2.386,2.386,2.386,2.386,2.394,2.386,2.386,2.386,2.386,2.378,2.378,2.378,2.37,2.37,2.37,2.37,2.37,2.37,2.37,2.37,2.37,2.37,2.37,2.37,2.37,2.37,2.37,2.37,2.37,2.37,2.37,2.378,2.378,2.378,2.386,2.386,2.386,2.386,2.386,2.394,2.403,2.411,2.428,2.437,2.446,2.463,2.481,2.499,2.508,2.526,2.536,2.555,2.574,2.603,2.623,2.633,2.643,2.653,2.653,2.664,2.664,2.674,2.664,2.664,2.653,2.653,2.643,2.643,2.623,2.603,2.564,2.49,2.411,2.345,2.275,2.203,2.141,2.102,2.076,2.057,2.045,2.039,2.033,2.027,2.027,2.021,2.027,0,0,0,1.986,1.969,1.958,1.952,1.941,1.925,1.92,1.92,1.909,1.909,1.914,1.92,1.992,2.076,2.168,0,2.378,2.499,2.633,2.695,2.695,2.695,2.695,2.684,2.684,2.684,2.684,2.684,0,0,0,0,0,0,1.697,1.697,1.697,1.693,1.688,1.688,1.688,1.688,1.688,1.684,1.684,1.684,0,2.738,2.738,2.749,2.738,2.738,2.738,2.749,2.749,2.738,2.749,2.738,2.738,2.738,2.727,2.727,2.716,0,0,0,0,0,0,0,1.51,1.514,1.514,1.514,1.514,1.517,1.517,1.52,1.524,1.524,1.527,1.527,1.53,0,2.603,2.613,2.623,2.623,2.623,2.643,2.643,2.643,2.653,2.664,2.664,2.664,2.664,2.674,2.684,2.695,2.695,2.684,2.684,2.684,2.684,2.684,2.684,0,0,0,0,0,0,0,0,0,0,0,1.277,1.277,1.277,1.277,1.277,1.277,1.28,1.28,1.282,1.282,1.284,1.284,1.284,1.284,1.287,1.287,0,0,2.283,2.283,2.283,2.283,2.283,2.283,2.283,2.283,2.283,2.283,2.275,2.275,2.268,2.268,2.261,2.261,2.253,2.253,2.246,2.238,2.238,2.231,2.224
1.385,1.388,1.391,1.391,1.394,1.394,1.397,1.4,1.4,1.4,1.402,1.402,1.402,1.402,1.402,1.405,1.405,1.405,1.405,1.405,1.405,1.405,1.402,1.402,1.402,1.402,1.4,1.397,1.397,1.397,1.394,1.394,1.394,1.394,1.394,1.394,1.391,1.391,1.391,1.391,1.391,1.388,1.388,1.388,1.385,1.385,1.385,1.383,1.383,1.38,1.38,1.377,1.377,1.377,1.377,1.377,1.377,1.374,1.374,1.374,1.374,1.372,1.372,1.372,1.369,1.366,1.366,1.363,1.363,1.361,1.361,1.361,1.361,1.358,1.358,1.358,1.355,1.355,1.353,1.353,1.35,1.35,1.35,1.35,1.347,1.347,1.347,1.347,1.347,1.347,1.347,1.347,1.347,1.347,1.347,1.347,1.347,1.345,1.345,1.345,1.345,1.342,1.342,1.34,1.34,1.34,1.337,1.337,1.337,1.337,1.337,1.337,1.337,1.337,1.337,1.337,1.337,1.337,1.337,1.337,1.337,1.337,1.337,1.337,1.337,1.337,1.337,1.34,1.34,1.34,1.34,1.34,1.34,1.34,1.34,1.342,1.342,1.342,1.342,1.342,1.345,1.345,1.345,1.345,1.345,1.345,1.345,1.345,1.345,1.345,1.345,1.345,1.345,1.345,1.345,1.345,1.345,1.345,1.345,1.347,1.347,1.35,1.35,1.353,1.353,1.353,1.353,1.35,1.347,1.345,1.342,1.34,1.337,1.332,1.329,1.327,1.324,1.322,1.322,1.319,1.319,1.319,1.319,1.319,1.319,1.319,1.322,1.324,1.327,1.329,1.332,1.334,1.334,1.337,1.34,1.342,1.345,1.347,1.347,1.35,1.353,1.355,1.355,1.358,1.358,1.361,1.361,1.363,1.363,1.363,1.366,1.366,1.369,1.372,1.372,1.374,1.374,1.377,1.377,1.377,1.377,1.377,1.377,1.377,1.38,1.38,1.38,1.38,1.38,1.38,1.38,1.377,1.377,1.377,1.377,1.377,1.377,1.377,1.38,1.38,1.383,1.385,1.385,1.388,1.391,1.397,1.397,1.4,1.4,1.402,1.405,1.402,0,0,0,2.306,2.314,2.329,2.337,2.345,2.353,2.353,2.361,2.37,2.378,2.378,2.386,2.386,2.386,2.386,2.386,2.386,2.386,2.386,2.386,2.386,2.386,2.386,2.386,2.378,2.378,2.378,2.378,2.378,2.378,2.378,2.378,2.378,2.378,2.378,2.378,2.378,2.378,2.378,2.37,2.37,2.37,2.37,2.37,2.37,2.37,2.37,2.37,2.37,2.37,2.37,2.378,2.378,2.378,2.378,2.378,2.378,2.37,2.37,2.37,2.37,2.37,2.37,2.361,2.361,2.361,2.361,2.361,2.353,2.353,2.353,2.353,2.353,2.353,2.353,2.353,2.353,2.353,2.353,2.353,2.361,2.361,2.361,2.361,2.361,2.361,2.361,2.361,2.361,2.361,2.37,2.37,2.378,2.394,2.394,2.411,2.42,2.437,2.454,2.481,2.49,2.508,2.526,2.536,2.574,2.593,2.613,2.623,2.633,2.643,2.653,2.664,2.664,2.664,2.664,2.653,2.653,2.653,2.643,2.633,2.623,2.603,2.564,2.49,2.411,2.337,2.275,2.203,2.141,2.102,2.076,2.057,2.045,2.033,2.033,2.033,2.027,2.027,2.027,2.027,2.021,2.009,1.992,1.975,1.963,1.952,1.941,1.936,1.925,1.92,1.914,1.914,1.914,1.92,1.998,2.076,2.175,0,2.386,2.508,2.643,2.695,2.705,2.705,2.705,2.695,2.695,2.695,2.684,2.684,0,0,0,0,0,1.693,1.693,1.693,1.693,1.693,1.688,1.688,1.688,1.688,1.688,1.688,1.688,1.688,0,2.727,2.738,2.738,2.738,2.738,2.749,2.749,2.749,2.738,2.749,2.738,2.738,2.738,2.727,2.727,2.727,0,0,0,0,0,0,0,1.51,1.514,1.514,1.514,1.514,1.514,1.517,1.52,1.52,1.524,1.524,1.524,1.527,0,2.593,0,0,2.623,2.623,2.633,2.643,2.643,2.653,2.664,2.653,2.653,2.664,2.674,2.684,2.695,2.684,2.684,2.674,2.674,2.674,2.674,2.674,0,0,0,0,0,0,0,0,0,0,1.275,1.277,1.277,1.277,1.277,1.28,1.28,1.28,1.282,1.282,1.282,1.284,1.287,1.287,1.287,1.287,0,0,0,2.291,2.291,2.291,2.283,2.283,2.283,2.283,2.283,2.283,2.283,2.275,2.275,2.268,2.268,2.261,2.261,2.253,2.253,2.246,2.238,2.231,2.231,2.224
1.397,1.397,1.4,1.402,1.405,1.408,1.408,1.408,1.411,1.411,1.414,1.414,1.414,1.414,1.414,1.414,1.414,1.417,1.417,1.417,1.417,1.414,1.414,1.411,1.411,1.408,1.408,1.405,1.405,1.402,1.402,1.4,1.4,1.4,1.4,1.4,1.397,1.397,1.397,1.397,1.397,1.397,1.397,1.394,1.394,1.391,1.391,1.388,1.388,1.385,1.385,1.383,1.383,1.383,1.383,1.38,1.38,1.38,1.38,1.377,1.377,1.377,1.374,1.374,1.374,1.372,1.369,1.369,1.366,1.366,1.366,1.363,1.363,1.363,1.361,1.361,1.361,1.358,1.358,1.355,1.355,1.353,1.353,1.353,1.35,1.35,1.35,1.35,1.35,1.353,1.353,1.353,1.353,1.353,1.353,1.35,1.35,1.35,1.347,1.347,1.347,1.345,1.345,1.345,1.342,1.342,1.342,1.342,1.34,1.34,1.34,1.34,1.34,1.34,1.34,1.34,1.34,1.34,1.34,1.34,1.34,1.34,1.34,1.34,1.34,1.34,1.34,1.34,1.34,1.34,1.342,1.342,1.342,1.342,1.342,1.342,1.342,1.345,1.345,1.345,1.347,1.347,1.347,1.347,1.347,1.347,1.347,1.347,1.347,1.347,1.347,1.347,1.347,1.347,1.347,1.347,1.347,1.347,1.35,1.35,1.353,1.353,1.355,1.355,1.355,1.355,1.355,1.355,1.353,1.35,1.347,1.345,1.342,1.34,1.337,1.334,1.332,1.329,1.327,1.327,1.324,1.324,1.324,1.324,1.327,1.329,1.329,1.332,1.334,1.337,1.34,1.342,1.345,1.347,1.347,1.35,1.353,1.355,1.355,1.358,1.361,1.363,1.363,1.366,1.366,1.369,1.369,1.372,1.372,1.374,1.374,1.377,1.377,1.38,1.383,1.383,1.385,1.385,1.385,1.388,1.388,1.388,1.388,1.388,1.388,1.388,1.388,1.385,1.385,1.385,1.383,1.383,1.38,1.38,1.38,1.377,1.377,1.377,1.38,1.383,1.383,1.385,1.385,1.388,1.391,1.394,1.397,1.397,1.397,1.4,0,0,0,0,2.291,2.298,2.314,2.314,2.322,2.329,2.337,2.345,2.353,2.361,2.361,2.37,2.37,2.37,2.37,2.37,2.37,2.361,2.361,2.361,2.361,2.361,2.361,2.361,2.361,2.361,2.361,2.361,2.361,2.361,2.361,2.361,2.37,2.37,2.37,2.37,2.361,2.361,2.361,2.353,2.353,2.353,2.353,2.353,2.353,2.353,2.353,2.353,2.353,2.353,2.353,2.353,2.353,2.353,2.361,2.361,2.361,2.361,2.361,2.361,2.353,2.353,2.353,2.353,2.345,2.345,2.345,2.337,2.337,2.337,2.337,2.329,2.329,2.329,2.329,2.329,2.329,2.329,2.337,2.337,2.337,2.337,2.337,2.337,2.345,2.345,2.345,2.345,2.345,2.345,2.337,2.337,2.345,2.353,2.361,2.37,2.37,2.386,2.403,2.42,2.446,2.463,2.481,2.499,2.526,2.564,2.583,2.603,2.613,2.633,2.633,2.643,2.653,2.653,2.664,2.653,2.653,2.643,2.643,2.643,2.633,2.613,2.603,2.564,2.49,2.411,2.337,2.275,2.203,2.141,2.095,2.076,2.057,2.045,2.033,2.033,2.033,2.027,2.027,2.027,2.027,2.021,2.003,1.992,1.975,1.963,1.952,1.947,1.936,1.93,1.925,1.92,1.92,1.914,1.925,1.998,2.082,0,0,2.386,2.508,2.653,2.705,2.705,2.716,2.716,2.705,2.716,2.705,2.705,2.705,0,0,0,0,0,1.693,1.693,1.693,1.693,1.693,1.693,1.688,1.688,1.688,1.688,1.688,1.688,0,0,2.727,2.738,2.738,2.738,2.738,2.749,2.749,2.749,2.749,2.749,2.738,2.738,2.738,2.738,2.738,2.738,0,0,0,0,0,0,0,0,1.514,1.514,1.514,1.51,1.514,1.514,1.517,1.52,1.517,1.517,1.52,1.52,0,2.583,0,0,2.613,2.613,2.623,2.633,2.633,2.653,2.653,2.653,2.653,2.653,2.674,2.684,2.695,2.695,2.684,2.674,2.664,2.674,2.664,2.653,0,0,0,0,0,0,0,0,0,1.275,1.275,1.277,1.277,1.277,1.28,1.28,1.28,1.282,1.282,1.284,1.284,1.287,1.287,1.287,1.287,1.289,0,0,0,2.291,2.291,2.291,2.291,2.291,2.291,2.291,2.283,2.283,2.283,2.275,2.275,2.268,2.268,2.261,2.261,2.253,2.246,2.246,2.238,2.231,2.224,2.217
1.405,1.408,1.411,1.414,1.417,1.417,1.42,1.42,1.423,1.423,1.426,1.426,1.426,1.426,1.426,1.426,1.426,1.426,1.426,1.426,1.426,1.426,1.423,1.42,1.42,1.417,1.417,1.414,1.411,1.408,1.408,1.405,1.405,1.402,1.402,1.402,1.402,1.405,1.402,1.402,1.402,1.402,1.402,1.402,1.4,1.4,1.397,1.397,1.394,1.394,1.391,1.388,1.388,1.388,1.388,1.385,1.385,1.385,1.383,1.383,1.383,1.38,1.38,1.38,1.377,1.374,1.374,1.374,1.372,1.372,1.369,1.369,1.369,1.366,1.366,1.363,1.363,1.363,1.361,1.361,1.361,1.358,1.358,1.355,1.355,1.355,1.355,1.355,1.355,1.355,1.355,1.355,1.355,1.355,1.355,1.353,1.353,1.353,1.35,1.35,1.347,1.347,1.347,1.347,1.347,1.347,1.345,1.345,1.345,1.345,1.345,1.345,1.345,1.345,1.345,1.345,1.345,1.342,1.342,1.342,1.342,1.342,1.342,1.342,1.342,1.342,1.342,1.342,1.342,1.342,1.342,1.342,1.342,1.345,1.345,1.345,1.345,1.347,1.347,1.347,1.347,1.347,1.347,1.347,1.347,1.347,1.347,1.347,1.347,1.347,1.347,1.35,1.35,1.35,1.35,1.35,1.353,1.353,1.353,1.355,1.355,1.358,1.361,1.361,1.361,1.363,1.361,1.361,1.358,1.358,1.353,1.35,1.347,1.345,1.342,1.342,1.34,1.337,1.334,1.334,1.332,1.332,1.332,1.334,1.334,1.337,1.34,1.342,1.345,1.345,1.347,1.35,1.353,1.355,1.358,1.361,1.363,1.366,1.366,1.369,1.369,1.372,1.372,1.374,1.374,1.374,1.377,1.38,1.38,1.383,1.383,1.385,1.388,1.388,1.391,1.394,1.394,1.397,1.397,1.397,1.397,1.397,1.397,1.394,1.394,1.391,1.391,1.391,1.388,1.388,1.388,1.383,1.383,1.383,1.38,1.377,1.377,1.38,1.38,1.383,1.383,1.385,1.385,1.388,1.388,1.394,1.397,0,0,0,0,0,2.253,2.268,2.275,2.283,2.291,2.298,2.306,2.314,2.322,2.322,2.329,2.337,2.345,2.345,2.345,2.345,2.345,2.345,2.345,2.345,2.345,2.337,2.337,2.337,2.337,2.337,2.337,2.337,2.345,2.345,2.345,2.345,2.345,2.345,2.345,2.345,2.345,2.345,2.345,2.345,2.345,2.345,2.337,2.337,2.337,2.329,2.329,2.329,2.329,2.329,2.329,2.329,2.329,2.329,2.337,2.337,2.337,2.337,2.337,2.345,2.337,2.337,2.337,2.337,2.337,2.337,2.329,2.329,2.322,2.322,2.322,2.322,2.322,2.322,2.322,2.322,2.322,2.314,2.314,2.314,2.314,2.314,2.314,2.322,2.322,2.322,2.322,2.322,2.322,2.322,2.322,2.322,2.314,2.314,2.314,2.322,2.329,2.329,2.337,2.345,2.361,2.378,2.394,2.42,2.437,2.463,2.49,2.526,2.555,2.583,2.603,2.613,2.633,2.633,2.643,2.653,2.653,2.653,2.643,2.643,2.643,2.633,2.633,2.613,2.603,2.574,2.499,2.42,2.337,2.275,2.203,2.134,2.089,2.07,2.057,2.045,2.033,2.033,2.033,2.027,2.027,2.021,2.021,2.021,2.003,1.992,1.975,1.969,1.958,1.952,1.941,1.936,1.93,1.925,1.925,1.92,1.936,2.003,2.089,0,2.283,2.394,2.517,2.653,2.705,2.716,2.727,2.727,2.716,2.727,2.727,2.727,0,0,0,0,0,0,1.697,1.693,1.693,1.693,1.693,1.693,1.688,1.688,1.688,1.688,1.688,1.688,0,0,2.716,2.727,2.727,2.738,2.738,2.749,2.749,2.749,2.749,2.749,2.749,2.738,2.738,2.749,2.76,2.76,0,0,0,0,0,0,0,0,1.514,1.514,1.51,1.51,1.51,1.514,1.514,1.514,1.514,1.514,1.514,1.517,0,2.574,2.593,2.603,2.613,2.603,2.613,2.623,2.633,2.643,2.653,2.643,2.643,2.653,2.664,2.684,2.684,2.684,2.674,2.653,2.653,2.653,2.643,2.633,0,0,0,0,0,0,0,0,0,1.275,1.277,1.277,1.277,1.277,1.28,1.282,1.28,1.282,1.284,1.284,1.284,1.287,1.287,1.287,1.287,1.289,0,0,0,2.298,2.291,2.291,2.291,2.291,2.291,2.291,2.291,2.283,2.283,2.275,2.275,2.268,2.268,2.261,2.253,2.253,2.246,2.238,2.231,2.231,2.224,2.217
1.414,1.417,1.423,1.423,1.426,1.429,1.432,1.432,1.435,1.435,1.438,1.438,1.438,1.438,1.438,1.438,1.438,1.438,1.438,1.438,1.438,1.435,1.432,1.432,1.429,1.426,1.423,1.42,1.417,1.417,1.414,1.411,1.411,1.411,1.411,1.411,1.411,1.411,1.411,1.411,1.411,1.411,1.411,1.408,1.408,1.405,1.405,1.402,1.402,1.4,1.397,1.397,1.394,1.394,1.394,1.391,1.391,1.388,1.388,1.388,1.385,1.385,1.383,1.383,1.38,1.38,1.377,1.377,1.377,1.374,1.374,1.374,1.372,1.372,1.372,1.369,1.369,1.366,1.366,1.363,1.363,1.363,1.361,1.361,1.361,1.358,1.358,1.358,1.358,1.358,1.358,1.358,1.355,1.355,1.355,1.355,1.355,1.353,1.353,1.353,1.35,1.35,1.35,1.347,1.347,1.347,1.347,1.347,1.347,1.347,1.347,1.347,1.347,1.347,1.347,1.347,1.347,1.347,1.347,1.345,1.345,1.345,1.345,1.342,1.342,1.342,1.342,1.345,1.345,1.345,1.345,1.345,1.345,1.347,1.347,1.347,1.347,1.347,1.347,1.347,1.347,1.347,1.35,1.35,1.35,1.35,1.35,1.35,1.35,1.35,1.35,1.353,1.353,1.353,1.355,1.355,1.355,1.355,1.358,1.361,1.361,1.361,1.363,1.366,1.366,1.366,1.366,1.366,1.363,1.363,1.361,1.358,1.355,1.353,1.35,1.347,1.347,1.345,1.342,1.342,1.342,1.34,1.342,1.342,1.345,1.345,1.347,1.35,1.353,1.355,1.358,1.361,1.363,1.366,1.369,1.372,1.372,1.374,1.377,1.377,1.38,1.38,1.38,1.383,1.383,1.385,1.385,1.388,1.388,1.391,1.391,1.394,1.394,1.397,1.397,1.4,1.402,1.402,1.402,1.402,1.402,1.402,1.4,1.4,1.397,1.397,1.397,1.394,1.394,1.391,1.388,1.388,1.385,1.383,1.383,1.38,1.38,1.38,1.38,1.38,1.383,1.383,1.385,0,0,0,0,0,0,2.21,2.217,2.224,2.238,2.246,2.253,2.261,2.275,2.275,2.291,2.291,2.298,2.306,2.306,2.314,2.314,2.322,2.322,2.322,2.322,2.322,2.322,2.322,2.314,2.314,2.314,2.314,2.314,2.314,2.314,2.314,2.314,2.314,2.314,2.314,2.314,2.322,2.322,2.329,2.329,2.329,2.329,2.322,2.322,2.322,2.322,2.314,2.314,2.314,2.306,2.306,2.306,2.306,2.306,2.306,2.306,2.314,2.314,2.314,2.322,2.322,2.322,2.322,2.322,2.322,2.322,2.322,2.322,2.314,2.314,2.314,2.314,2.314,2.306,2.306,2.306,2.306,2.306,2.306,2.306,2.306,2.298,2.298,2.298,2.298,2.298,2.298,2.298,2.298,2.298,2.298,2.298,2.298,2.291,2.291,2.291,2.283,2.283,2.291,2.291,2.291,2.298,2.306,2.314,2.337,2.353,2.37,2.386,2.403,2.428,2.463,2.499,2.526,2.555,2.583,2.603,2.613,2.633,2.633,2.643,2.653,2.643,2.633,2.643,2.633,2.633,2.613,2.603,2.574,2.499,2.42,2.337,2.268,2.196,2.134,2.089,2.07,2.051,2.045,2.033,2.033,2.027,2.027,2.027,2.021,2.021,2.015,2.003,1.992,1.98,1.969,1.963,1.958,1.947,1.941,1.936,1.93,1.93,1.93,1.947,2.015,2.095,0,0,2.403,2.526,2.674,2.705,2.716,2.727,2.738,2.738,2.738,2.738,2.738,0,0,0,0,0,0,1.697,1.697,1.697,1.693,1.693,1.693,1.688,1.688,1.693,1.693,1.693,1.693,0,0,2.705,2.716,2.727,2.727,2.738,2.749,2.749,2.76,2.76,2.76,2.749,2.749,2.749,2.749,2.76,0,0,0,0,0,0,0,0,1.514,1.514,1.514,1.514,1.51,1.51,1.514,1.514,1.514,1.51,1.51,1.514,1.514,0,0,0,2.593,2.593,2.603,2.613,2.623,2.623,2.643,2.653,2.643,2.643,2.664,2.664,2.684,2.684,2.684,2.664,2.653,2.643,2.643,2.633,2.613,2.593,0,0,0,0,0,0,0,0,0,1.277,1.277,1.277,1.277,1.28,1.282,1.282,1.282,1.284,1.284,1.287,1.287,1.287,1.287,1.287,0,0,0,0,2.298,2.298,2.298,2.298,2.298,2.298,2.291,2.291,2.291,2.283,2.283,2.275,2.268,2.268,2.261,2.253,2.253,2.246,2.238,2.231,2.224,2.217,2.21
1.423,1.429,1.432,1.435,1.438,1.441,1.441,1.444,1.444,1.447,1.45,1.45,1.45,1.45,1.45,1.447,1.447,1.45,1.45,1.447,1.444,1.441,1.438,1.438,1.435,1.435,1.432,1.426,1.426,1.423,1.423,1.42,1.417,1.417,1.417,1.417,1.417,1.417,1.42,1.42,1.42,1.42,1.417,1.417,1.417,1.414,1.411,1.411,1.408,1.405,1.405,1.402,1.402,1.4,1.397,1.397,1.394,1.394,1.391,1.391,1.388,1.388,1.385,1.385,1.385,1.383,1.383,1.383,1.38,1.38,1.38,1.377,1.377,1.377,1.374,1.374,1.372,1.372,1.369,1.369,1.366,1.366,1.363,1.363,1.363,1.363,1.361,1.361,1.361,1.361,1.361,1.358,1.358,1.358,1.358,1.355,1.355,1.355,1.355,1.353,1.353,1.353,1.35,1.35,1.35,1.35,1.347,1.347,1.347,1.347,1.347,1.35,1.35,1.35,1.35,1.35,1.35,1.35,1.347,1.347,1.347,1.347,1.347,1.347,1.347,1.347,1.347,1.347,1.347,1.347,1.347,1.347,1.347,1.347,1.347,1.347,1.35,1.35,1.35,1.35,1.35,1.35,1.35,1.35,1.35,1.353,1.353,1.353,1.353,1.353,1.353,1.355,1.355,1.355,1.358,1.358,1.361,1.363,1.363,1.363,1.366,1.366,1.369,1.369,1.372,1.372,1.372,1.369,1.369,1.369,1.366,1.363,1.361,1.358,1.358,1.355,1.353,1.353,1.353,1.35,1.35,1.35,1.35,1.353,1.353,1.355,1.358,1.361,1.363,1.366,1.369,1.372,1.374,1.377,1.38,1.383,1.385,1.385,1.385,1.388,1.388,1.388,1.388,1.388,1.388,1.388,1.391,1.391,1.394,1.394,1.397,1.4,1.4,1.405,1.414,1.42,1.429,1.423,1.435,1.426,1.426,1.423,1.429,1.429,1.42,1.414,1.4,1.4,1.397,1.394,1.391,1.388,1.385,1.385,1.383,1.38,1.38,1.38,0,0,0,0,0,0,0,0,2.168,2.168,2.182,2.189,2.196,2.21,2.224,2.231,2.238,2.238,2.253,2.261,2.261,2.268,2.275,2.275,2.283,2.291,2.291,2.291,2.298,2.298,2.298,2.291,2.291,2.291,2.283,2.283,2.283,2.283,2.283,2.283,2.283,2.283,2.283,2.283,2.291,2.291,2.291,2.291,2.298,2.298,2.306,2.306,2.306,2.298,2.298,2.298,2.298,2.291,2.291,2.291,2.283,2.283,2.283,2.275,2.275,2.275,2.283,2.291,2.291,2.291,2.291,2.298,2.298,2.306,2.306,2.306,2.306,2.306,2.306,2.306,2.298,2.298,2.298,2.298,2.298,2.298,2.291,2.291,2.291,2.291,2.291,2.291,2.283,2.283,2.283,2.283,2.283,2.283,2.275,2.275,2.275,2.275,2.275,2.275,2.268,2.261,2.261,2.253,2.246,2.253,2.253,2.253,2.253,2.261,2.268,2.283,2.291,2.306,2.322,2.337,2.361,2.403,2.428,2.463,2.499,2.526,2.564,2.583,2.603,2.613,2.623,2.633,2.633,2.633,2.633,2.623,2.623,2.613,2.603,2.574,2.499,2.411,2.329,2.261,2.189,2.128,2.089,2.07,2.051,2.045,2.033,2.033,2.027,2.027,2.027,2.021,2.015,2.009,2.003,1.992,1.98,1.969,1.969,1.958,1.952,1.941,1.941,1.936,1.936,1.93,1.958,2.021,2.095,0,0,2.411,2.545,2.684,2.705,2.716,2.727,2.738,2.749,2.749,2.749,2.749,0,0,0,0,0,0,1.701,1.697,1.697,1.693,1.693,1.688,1.688,1.688,1.693,1.693,1.693,1.697,0,2.653,2.674,2.705,2.716,2.727,2.727,2.749,2.749,2.76,2.76,2.76,2.76,2.76,2.76,2.76,0,0,0,0,0,0,0,0,1.51,1.514,1.514,1.514,1.51,1.51,1.51,1.514,1.514,1.514,1.51,1.51,1.51,1.51,0,0,0,2.583,2.583,2.593,2.603,2.613,2.623,2.633,2.643,2.643,2.653,2.653,2.664,2.674,2.684,2.674,2.653,2.633,2.623,2.623,2.613,2.603,0,0,0,0,0,0,0,0,0,1.277,1.277,1.28,1.28,1.28,1.282,1.282,1.282,1.284,1.284,1.287,1.287,1.287,1.287,1.287,1.287,0,0,0,0,2.306,2.306,2.306,2.306,2.298,2.298,2.298,2.291,2.291,2.283,2.283,2.275,2.268,2.268,2.261,2.253,2.246,2.238,2.231,2.224,2.217,2.21,2.203
1.435,1.438,1.441,1.444,1.447,1.45,1.453,1.453,1.456,1.459,1.459,1.459,1.459,1.459,1.459,1.459,1.456,1.456,1.456,1.453,1.45,1.45,1.447,1.444,1.444,1.438,1.438,1.435,1.429,1.429,1.426,1.426,1.423,1.423,1.423,1.426,1.426,1.426,1.426,1.426,1.426,1.426,1.426,1.426,1.423,1.423,1.42,1.417,1.414,1.414,1.411,1.408,1.405,1.405,1.402,1.4,1.4,1.397,1.394,1.394,1.391,1.391,1.388,1.388,1.388,1.385,1.385,1.385,1.385,1.383,1.383,1.383,1.383,1.38,1.38,1.38,1.377,1.377,1.374,1.374,1.372,1.372,1.369,1.369,1.366,1.366,1.366,1.363,1.363,1.363,1.363,1.361,1.361,1.361,1.358,1.358,1.358,1.355,1.355,1.355,1.355,1.353,1.353,1.353,1.353,1.35,1.35,1.35,1.35,1.35,1.353,1.353,1.353,1.353,1.353,1.353,1.353,1.353,1.35,1.35,1.35,1.35,1.35,1.35,1.35,1.35,1.35,1.35,1.35,1.35,1.35,1.35,1.35,1.35,1.35,1.35,1.35,1.353,1.353,1.353,1.353,1.353,1.353,1.353,1.353,1.353,1.353,1.355,1.355,1.355,1.355,1.358,1.358,1.358,1.361,1.363,1.366,1.366,1.369,1.369,1.372,1.372,1.374,1.374,1.374,1.374,1.374,1.374,1.374,1.374,1.372,1.372,1.369,1.366,1.366,1.366,1.363,1.363,1.361,1.361,1.361,1.361,1.363,1.363,1.366,1.366,1.369,1.372,1.374,1.38,1.383,1.385,1.385,1.388,1.391,1.394,1.397,1.397,1.397,1.397,1.397,1.394,1.394,1.394,1.394,1.394,1.397,1.397,1.397,1.4,1.402,1.408,1.417,1.432,1.444,1.459,1.472,1.481,1.494,1.5,1.5,1.491,1.478,1.456,1.438,1.423,1.405,1.402,1.402,1.4,1.394,1.394,1.391,1.388,1.385,1.383,0,0,0,0,0,0,0,0,2.134,2.147,2.154,2.161,2.161,2.175,2.182,2.189,2.196,2.203,2.21,2.217,2.224,2.231,2.231,2.238,2.246,2.246,2.253,2.261,2.261,2.268,2.268,2.268,2.268,2.261,2.261,2.261,2.261,2.253,2.253,2.253,2.253,2.253,2.253,2.253,2.253,2.253,2.261,2.261,2.268,2.268,2.268,2.275,2.275,2.275,2.283,2.275,2.275,2.275,2.275,2.268,2.268,2.261,2.261,2.253,2.253,2.253,2.253,2.253,2.253,2.261,2.261,2.261,2.268,2.275,2.275,2.275,2.283,2.283,2.283,2.291,2.291,2.291,2.291,2.291,2.283,2.283,2.283,2.283,2.283,2.283,2.275,2.275,2.275,2.275,2.275,2.268,2.268,2.268,2.261,2.261,2.261,2.261,2.261,2.253,2.246,2.238,2.238,2.231,2.224,2.217,2.217,2.217,2.21,2.21,2.217,2.217,2.224,2.231,2.238,2.246,2.261,2.275,2.291,2.322,2.345,2.378,2.411,2.454,2.481,2.508,2.545,2.564,2.574,2.593,2.603,2.603,2.613,2.613,2.603,2.593,2.593,2.555,2.49,2.403,0,0,2.189,2.128,2.089,2.07,2.051,2.045,2.033,2.033,2.027,2.027,2.021,2.015,2.009,2.003,1.998,1.992,1.975,1.969,1.969,1.958,1.952,1.941,1.941,1.936,1.936,1.93,1.958,2.015,2.082,0,0,2.386,2.526,2.674,2.695,2.716,2.727,2.738,2.749,2.749,2.76,2.76,0,0,0,0,0,0,1.705,1.701,1.697,1.693,1.693,1.688,1.688,1.688,1.693,1.688,1.693,1.697,0,0,2.664,2.705,2.716,2.727,2.727,2.749,2.749,2.76,2.771,2.771,2.76,2.76,2.76,2.771,0,0,0,0,0,0,0,1.514,1.514,1.514,1.517,1.517,1.514,1.51,1.51,1.51,1.51,1.514,1.51,1.51,1.51,1.51,0,0,2.545,2.564,2.564,2.583,2.593,2.603,2.613,2.633,2.633,2.643,2.643,2.653,2.664,2.674,2.674,2.674,2.643,2.633,2.623,2.613,2.603,2.593,2.564,0,0,0,0,0,0,0,0,0,1.28,1.28,1.282,1.282,1.282,1.284,1.284,1.284,1.287,1.287,1.287,1.287,1.287,1.284,1.287,0,0,0,0,2.306,2.298,2.298,2.298,2.298,2.298,2.298,2.291,2.291,2.283,2.283,2.275,2.268,2.268,2.261,2.253,2.246,2.238,2.231,2.217,2.21,2.203,2.196
1.441,1.444,1.447,1.453,1.456,1.462,1.462,1.465,1.465,1.468,1.468,1.472,1.468,1.468,1.468,1.468,1.468,1.465,1.465,1.468,1.472,1.475,1.468,1.472,1.472,1.475,1.475,1.472,1.472,1.468,1.468,1.468,1.462,1.456,1.453,1.45,1.447,1.444,1.441,1.438,1.435,1.435,1.435,1.435,1.432,1.429,1.426,1.426,1.423,1.417,1.417,1.414,1.411,1.408,1.405,1.405,1.402,1.4,1.397,1.397,1.397,1.394,1.394,1.394,1.391,1.391,1.391,1.391,1.388,1.388,1.388,1.388,1.385,1.385,1.385,1.383,1.383,1.383,1.38,1.377,1.377,1.374,1.374,1.372,1.372,1.369,1.369,1.369,1.366,1.366,1.366,1.363,1.363,1.363,1.361,1.358,1.358,1.358,1.355,1.355,1.355,1.355,1.353,1.353,1.353,1.353,1.353,1.353,1.353,1.353,1.353,1.353,1.355,1.355,1.355,1.355,1.355,1.355,1.355,1.353,1.353,1.353,1.353,1.353,1.353,1.353,1.353,1.353,1.353,1.353,1.355,1.355,1.355,1.355,1.355,1.355,1.355,1.355,1.355,1.355,1.355,1.355,1.355,1.355,1.355,1.355,1.355,1.355,1.358,1.358,1.358,1.361,1.361,1.363,1.366,1.369,1.369,1.372,1.374,1.374,1.377,1.377,1.38,1.38,1.38,1.38,1.38,1.38,1.38,1.38,1.377,1.377,1.377,1.374,1.374,1.372,1.372,1.372,1.372,1.369,1.369,1.372,1.372,1.374,1.377,1.38,1.38,1.383,1.385,1.391,1.391,1.394,1.394,1.397,1.4,1.402,1.402,1.402,1.402,1.402,1.402,1.405,1.411,1.414,1.42,1.426,1.426,1.441,1.447,1.45,1.462,1.468,1.481,1.494,1.507,1.52,1.534,1.544,1.558,1.565,1.565,1.541,1.484,1.462,1.429,1.42,1.408,1.405,1.405,1.402,1.397,0,0,0,0,0,0,0,2.076,2.082,2.089,2.102,2.108,2.114,2.121,2.128,2.134,2.141,2.154,2.154,2.168,2.168,2.175,2.182,2.182,2.189,2.196,2.203,2.203,2.21,2.21,2.217,2.217,2.224,2.224,2.231,2.231,2.231,2.231,2.231,2.231,2.224,2.224,2.224,2.217,2.217,2.217,2.217,2.217,2.217,2.224,2.224,2.224,2.231,2.231,2.238,2.238,2.246,2.246,2.253,2.253,2.253,2.253,2.246,2.246,2.246,2.238,2.231,2.231,2.231,2.224,2.224,2.224,2.224,2.224,2.231,2.231,2.238,2.238,2.246,2.253,2.253,2.261,2.261,2.268,2.268,2.275,2.275,2.275,2.275,2.275,2.275,2.275,2.268,2.268,2.268,2.268,2.261,2.261,2.261,2.253,2.253,2.253,2.253,2.246,2.246,2.246,2.238,2.231,2.231,2.224,2.217,2.21,2.203,2.196,2.189,2.182,2.182,2.175,2.175,2.175,2.175,2.175,2.182,2.182,2.189,2.203,2.21,2.224,2.253,2.275,2.298,2.329,2.361,2.394,2.42,2.454,2.481,2.499,2.517,2.536,2.555,2.564,2.564,2.574,2.564,2.555,2.517,2.454,2.378,0,0,2.182,2.128,2.089,2.07,2.051,2.045,2.033,2.027,2.021,2.021,2.015,2.015,2.003,0,1.992,1.98,1.969,1.963,1.963,1.958,1.947,1.947,1.941,1.936,1.936,1.936,1.958,2.003,2.064,0,2.238,2.345,2.472,2.623,2.664,2.695,2.727,2.749,2.749,2.749,2.76,0,0,0,0,0,0,1.709,1.709,1.705,1.697,1.697,1.693,1.693,1.693,1.693,1.693,1.693,1.697,1.701,0,0,2.695,2.705,2.716,2.727,2.727,2.749,2.76,2.76,2.771,2.771,2.771,2.771,2.771,0,0,0,0,0,0,0,0,1.52,1.517,1.517,1.517,1.514,1.514,1.51,1.51,1.514,1.514,1.51,1.51,1.51,1.51,0,0,0,2.536,2.545,2.555,2.564,2.574,2.593,2.603,2.623,2.633,2.633,2.643,2.643,2.653,2.664,2.664,2.653,2.633,2.613,2.603,2.603,2.593,2.583,2.545,0,0,0,0,0,0,0,0,0,1.28,1.282,1.282,1.282,1.284,1.284,1.284,1.287,1.287,1.287,1.287,1.287,1.287,1.287,1.284,1.284,0,0,0,2.291,2.291,2.291,2.291,2.291,2.291,2.291,2.283,2.283,2.283,2.275,2.268,2.268,2.261,2.253,2.246,2.238,2.231,2.224,2.217,2.21,2.196,2.189
1.45,1.453,1.456,1.462,1.465,1.465,1.468,1.472,1.475,1.478,1.478,1.478,1.478,1.478,1.478,1.478,1.478,1.478,1.484,1.491,1.494,1.5,1.504,1.507,1.507,1.51,1.514,1.51,1.507,1.504,1.5,1.5,1.494,1.487,1.478,1.475,1.472,1.462,1.456,1.45,1.444,1.444,1.444,1.441,1.441,1.438,1.435,1.432,1.429,1.426,1.423,1.42,1.417,1.414,1.411,1.408,1.408,1.405,1.402,1.402,1.4,1.4,1.397,1.397,1.397,1.394,1.394,1.394,1.394,1.394,1.391,1.391,1.391,1.391,1.388,1.388,1.388,1.385,1.385,1.383,1.383,1.38,1.377,1.377,1.374,1.374,1.372,1.372,1.372,1.369,1.369,1.366,1.366,1.363,1.363,1.361,1.361,1.358,1.358,1.355,1.355,1.355,1.355,1.355,1.353,1.353,1.353,1.353,1.353,1.353,1.355,1.355,1.355,1.358,1.358,1.358,1.358,1.358,1.358,1.355,1.355,1.355,1.355,1.355,1.355,1.355,1.355,1.355,1.355,1.355,1.355,1.355,1.355,1.355,1.355,1.355,1.355,1.355,1.355,1.355,1.355,1.358,1.358,1.358,1.358,1.358,1.358,1.361,1.361,1.361,1.363,1.363,1.366,1.369,1.372,1.372,1.374,1.377,1.38,1.38,1.383,1.383,1.385,1.385,1.385,1.388,1.388,1.388,1.388,1.385,1.385,1.385,1.383,1.383,1.383,1.38,1.38,1.377,1.377,1.377,1.38,1.383,1.383,1.385,1.388,1.391,1.394,1.397,1.397,1.4,1.402,1.402,1.408,1.414,1.42,1.426,1.432,1.435,1.441,1.447,1.45,1.456,1.462,1.465,1.475,1.481,1.491,1.497,1.507,1.517,1.524,1.534,1.544,1.562,1.573,1.587,1.594,1.606,1.621,0,1.632,1.636,0,0,0,0,0,0,0,0,0,0,0,0,0,0,2.039,2.051,2.057,2.07,2.076,2.076,2.089,2.095,2.102,2.114,2.114,2.121,2.128,2.141,2.141,2.147,2.147,2.154,2.154,2.161,2.161,2.168,2.175,2.175,2.175,2.182,2.182,2.189,2.189,2.196,2.196,2.196,2.196,2.196,2.196,2.196,2.189,2.189,2.189,2.182,2.182,2.182,2.182,2.189,2.189,2.189,2.196,2.196,2.203,2.203,2.21,2.217,2.217,2.217,2.224,2.224,2.217,2.217,2.217,2.21,2.21,2.203,2.203,2.203,2.196,2.196,2.196,2.196,2.196,2.196,2.203,2.21,2.21,2.217,2.224,2.231,2.238,2.238,2.246,2.246,2.253,2.253,2.261,2.261,2.261,2.261,2.261,2.261,2.253,2.253,2.253,2.246,2.246,2.246,2.246,2.238,2.238,2.231,2.231,2.224,2.224,2.217,2.21,2.203,2.196,2.189,2.182,2.175,2.168,2.161,2.154,2.147,2.141,2.141,2.134,2.134,2.134,2.134,2.134,2.134,2.147,2.154,2.168,2.189,2.203,2.224,2.253,2.275,2.306,2.329,2.361,2.394,2.411,2.428,2.454,2.472,2.481,2.49,2.499,2.49,2.481,2.454,2.403,0,0,0,2.161,2.114,2.082,2.07,2.051,2.045,2.033,2.027,2.021,2.015,2.009,2.003,0,0,0,1.975,1.963,1.958,1.958,1.952,1.947,1.941,1.941,1.936,1.936,1.936,1.952,1.986,2.039,0,2.189,2.298,2.428,2.574,2.633,2.684,2.727,2.749,2.76,2.76,0,0,0,0,0,0,1.714,1.714,1.714,1.705,1.697,1.697,1.697,1.693,1.693,1.693,1.693,1.693,1.697,1.701,1.762,0,2.643,2.695,2.705,2.716,2.727,2.749,2.749,2.76,2.771,2.771,2.76,2.771,2.771,2.771,0,0,0,0,0,0,0,1.524,1.52,1.52,1.517,1.517,1.514,1.51,1.51,1.514,1.514,1.51,1.507,1.507,1.507,0,0,0,2.526,2.536,2.545,2.555,2.564,2.574,2.593,2.613,2.623,2.623,2.633,2.633,2.643,2.643,2.643,2.633,2.613,2.603,2.593,2.583,2.583,2.564,2.536,0,0,0,0,0,0,0,0,0,1.282,1.282,1.284,1.284,1.284,1.287,1.287,1.287,1.287,1.287,1.287,1.287,1.284,1.284,1.284,0,0,0,0,2.275,2.275,2.275,2.275,2.275,2.275,2.275,2.275,2.268,2.268,2.268,2.261,2.261,2.253,2.246,2.246,2.238,2.224,2.217,2.21,2.203,2.196,2.189
1.456,1.462,1.465,1.472,1.475,1.475,1.478,1.481,1.481,1.484,1.484,1.487,1.487,1.487,1.491,1.494,1.497,1.5,1.507,1.517,1.527,1.537,1.541,1.551,1.555,1.558,1.562,1.558,1.558,1.555,1.551,1.551,1.541,1.534,1.52,1.514,1.504,1.494,1.484,1.475,1.459,1.459,1.453,1.45,1.447,1.444,1.441,1.438,1.435,1.432,1.426,1.423,1.423,1.417,1.417,1.414,1.411,1.408,1.408,1.405,1.405,1.402,1.402,1.402,1.4,1.4,1.4,1.4,1.397,1.397,1.397,1.397,1.394,1.394,1.394,1.391,1.391,1.391,1.388,1.385,1.385,1.383,1.383,1.38,1.377,1.377,1.374,1.374,1.374,1.372,1.372,1.369,1.369,1.366,1.366,1.363,1.361,1.361,1.358,1.358,1.358,1.355,1.355,1.355,1.355,1.355,1.355,1.355,1.355,1.355,1.358,1.358,1.361,1.361,1.361,1.361,1.361,1.361,1.361,1.361,1.361,1.361,1.361,1.361,1.358,1.361,1.361,1.361,1.361,1.361,1.361,1.361,1.361,1.361,1.361,1.361,1.361,1.361,1.361,1.361,1.361,1.361,1.361,1.361,1.361,1.361,1.361,1.363,1.363,1.366,1.366,1.369,1.372,1.374,1.374,1.377,1.38,1.383,1.385,1.385,1.388,1.391,1.391,1.394,1.394,1.394,1.394,1.394,1.394,1.394,1.391,1.391,1.391,1.388,1.388,1.385,1.385,1.385,1.385,1.385,1.388,1.391,1.394,1.397,1.4,1.402,1.405,1.405,1.408,1.414,1.42,1.426,1.435,1.444,1.453,1.465,1.475,1.484,1.491,1.497,1.504,1.51,1.517,1.524,1.53,1.537,1.548,1.558,1.569,1.58,1.587,1.598,0,0,0,0,0,1.676,1.688,1.697,1.722,1.727,1.762,0,0,0,0,0,0,0,0,1.98,0,1.998,2.003,2.015,2.027,2.033,2.039,2.045,2.051,2.057,2.07,2.076,2.082,2.089,2.089,2.095,2.102,2.108,2.114,2.114,2.121,2.121,2.128,2.134,2.134,2.134,2.141,2.141,2.147,2.147,2.154,2.154,2.154,2.161,2.161,2.161,2.161,2.161,2.161,2.161,2.161,2.154,2.154,2.154,2.147,2.147,2.147,2.154,2.154,2.161,2.161,2.168,2.168,2.175,2.175,2.182,2.182,2.182,2.189,2.189,2.189,2.189,2.182,2.182,2.182,2.175,2.175,2.168,2.168,2.168,2.168,2.168,2.168,2.175,2.175,2.182,2.182,2.189,2.196,2.203,2.21,2.217,2.224,2.231,2.231,2.238,2.238,2.238,2.246,2.246,2.246,2.246,2.238,2.238,2.238,2.231,2.224,2.224,2.224,2.217,2.217,2.21,2.21,2.203,2.203,2.196,2.189,2.182,2.175,2.168,2.161,2.154,2.141,2.134,2.128,2.121,2.114,2.108,2.102,2.102,2.102,2.102,2.095,2.102,2.102,2.108,2.121,2.128,2.147,2.161,2.182,2.21,2.231,2.253,2.283,2.306,2.322,2.345,2.361,2.378,2.386,2.403,2.403,2.403,2.386,2.361,2.322,2.268,2.224,2.182,2.141,2.102,2.076,2.064,2.051,2.045,2.033,2.027,2.021,2.015,2.009,1.998,0,0,0,1.963,1.958,1.958,1.958,1.952,1.947,1.941,1.941,1.936,1.941,1.941,1.952,1.98,2.021,0,2.161,2.261,2.378,2.545,2.623,2.674,2.727,2.749,2.76,0,0,0,0,0,0,0,1.718,1.718,1.714,1.705,1.701,1.697,1.697,1.693,1.693,1.693,1.693,1.701,1.705,1.714,0,0,2.593,2.653,2.664,2.664,2.684,2.705,2.716,2.727,2.727,2.738,2.738,2.749,2.749,0,0,0,0,0,0,0,0,1.527,1.524,1.52,1.517,1.517,1.514,1.51,1.51,1.51,1.51,1.51,1.507,1.507,1.507,0,2.49,2.508,2.517,2.526,2.536,2.545,2.555,2.564,2.583,2.603,2.613,2.613,2.623,2.623,2.623,2.633,2.623,2.613,2.593,2.583,2.574,2.564,2.564,2.555,0,0,0,0,0,0,0,0,0,1.282,1.282,1.284,1.284,1.284,1.287,1.287,1.287,1.287,1.287,1.287,1.287,1.284,1.284,1.284,1.284,0,0,0,0,2.261,2.261,2.261,2.261,2.261,2.261,2.261,2.253,2.253,2.261,2.253,2.253,2.253,2.246,2.238,2.238,2.231,2.224,2.217,2.21,2.203,2.189,2.182
1.465,1.472,1.478,1.481,1.484,1.487,1.491,1.494,1.494,1.497,1.5,1.5,1.504,1.507,1.51,1.517,1.52,1.53,1.541,1.555,1.565,1.576,1.583,1.594,1.598,1.606,1.609,1.609,0,0,0,0,1.591,1.583,1.569,1.558,1.548,1.53,1.517,1.504,1.487,1.478,1.472,1.465,1.462,1.456,1.45,1.45,1.444,1.441,1.438,1.435,1.432,1.429,1.426,1.423,1.417,1.414,1.414,1.411,1.408,1.408,1.405,1.405,1.405,1.405,1.405,1.402,1.402,1.402,1.402,1.4,1.4,1.4,1.397,1.397,1.394,1.394,1.391,1.391,1.388,1.385,1.385,1.383,1.383,1.38,1.38,1.377,1.377,1.374,1.374,1.372,1.372,1.369,1.366,1.366,1.363,1.363,1.361,1.361,1.361,1.358,1.358,1.358,1.358,1.358,1.358,1.358,1.358,1.358,1.361,1.361,1.363,1.363,1.363,1.363,1.363,1.363,1.363,1.363,1.363,1.363,1.363,1.363,1.363,1.363,1.366,1.366,1.366,1.366,1.363,1.363,1.363,1.363,1.363,1.363,1.363,1.363,1.363,1.363,1.363,1.363,1.363,1.363,1.363,1.366,1.366,1.366,1.369,1.369,1.372,1.374,1.377,1.38,1.38,1.383,1.385,1.388,1.391,1.391,1.394,1.397,1.4,1.4,1.402,1.402,1.402,1.402,1.402,1.402,1.4,1.4,1.4,1.397,1.397,1.397,1.394,1.394,1.397,1.397,1.4,1.402,1.405,1.408,1.411,1.417,1.423,1.429,1.435,1.444,1.456,1.465,1.478,1.494,1.504,1.517,1.527,1.537,1.544,1.551,1.558,1.569,1.576,1.583,1.591,1.602,1.613,0,0,0,0,0,0,0,0,1.727,1.74,1.749,1.762,1.771,1.78,1.813,1.833,1.862,1.904,1.941,1.952,1.952,1.952,1.958,1.963,1.969,1.975,1.98,1.992,2.003,2.009,2.015,2.027,2.027,2.039,2.039,2.045,2.057,2.064,2.07,2.064,2.07,2.076,2.076,2.082,2.082,2.089,2.089,2.095,2.095,2.102,2.102,2.108,2.108,2.114,2.114,2.114,2.121,2.121,2.121,2.128,2.128,2.128,2.128,2.128,2.128,2.128,2.128,2.121,2.121,2.121,2.121,2.121,2.121,2.121,2.128,2.128,2.134,2.134,2.141,2.141,2.147,2.147,2.154,2.154,2.154,2.154,2.154,2.154,2.154,2.147,2.147,2.141,2.141,2.141,2.141,2.141,2.141,2.141,2.147,2.147,2.154,2.154,2.168,2.175,2.175,2.182,2.189,2.196,2.203,2.21,2.217,2.217,2.224,2.224,2.224,2.224,2.224,2.224,2.217,2.217,2.217,2.21,2.21,2.203,2.203,2.196,2.189,2.189,2.182,2.182,2.175,2.168,2.161,2.154,2.141,2.134,2.128,2.121,2.114,2.108,2.102,2.095,2.089,2.082,2.082,2.076,2.076,2.076,2.076,2.076,2.082,2.082,2.089,2.108,2.108,2.128,2.141,2.168,2.182,2.203,2.224,2.238,2.261,2.275,2.298,2.306,2.306,2.314,2.306,2.291,2.268,2.238,2.203,2.175,2.141,2.102,2.082,2.064,2.057,2.045,2.039,2.027,2.021,2.015,2.009,1.998,1.992,1.98,0,1.963,1.958,1.952,1.947,1.952,1.947,1.947,1.941,1.941,1.936,1.941,1.941,1.958,1.98,2.021,2.082,2.147,0,0,0,0,0,0,0,0,0,0,0,0,0,1.718,1.718,1.718,1.718,1.714,1.705,1.701,1.697,1.697,1.697,1.693,1.693,1.697,1.714,1.722,1.735,0,0,0,0,0,0,2.643,2.664,2.674,2.684,2.695,2.695,2.695,0,0,0,0,0,0,0,0,0,0,1.53,1.527,1.524,1.524,1.52,1.517,1.514,1.51,1.51,1.51,1.51,1.507,1.507,1.507,0,2.499,2.508,2.517,2.526,2.526,2.536,2.555,2.564,2.574,2.593,2.603,2.613,2.613,2.613,2.613,2.613,2.603,2.593,2.583,2.574,2.564,2.555,2.555,0,0,0,0,0,0,0,0,0,0,0,1.284,1.284,1.287,1.287,1.287,1.287,1.287,1.287,1.287,1.287,1.287,1.284,1.284,1.284,1.284,0,0,0,0,2.238,2.238,2.238,2.238,2.238,2.238,2.238,2.246,2.246,2.246,2.246,2.246,2.238,2.238,2.238,2.231,2.224,2.217,2.21,2.203,2.196,2.189,2.182
1.481,1.484,1.494,1.497,1.5,1.504,1.504,1.507,1.51,1.514,1.517,1.517,1.52,1.53,1.537,1.548,1.558,1.565,1.58,1.591,1.602,1.613,1.625,1.636,1.64,1.648,0,1.66,1.66,1.656,1.652,1.648,1.64,1.632,1.613,1.606,0,1.573,1.555,1.541,1.524,1.51,1.497,1.491,1.484,1.475,1.468,1.462,1.456,1.45,1.447,1.444,1.438,1.432,1.429,1.426,1.423,1.42,1.417,1.417,1.414,1.414,1.411,1.411,1.411,1.408,1.408,1.408,1.405,1.405,1.405,1.405,1.405,1.402,1.402,1.4,1.4,1.397,1.394,1.394,1.391,1.391,1.388,1.385,1.385,1.383,1.383,1.38,1.38,1.377,1.377,1.374,1.374,1.372,1.372,1.369,1.366,1.366,1.363,1.363,1.363,1.363,1.361,1.361,1.361,1.361,1.361,1.361,1.361,1.363,1.363,1.366,1.366,1.366,1.366,1.369,1.369,1.369,1.369,1.369,1.369,1.369,1.369,1.369,1.369,1.369,1.369,1.369,1.369,1.369,1.369,1.369,1.369,1.369,1.369,1.369,1.366,1.366,1.366,1.366,1.366,1.366,1.366,1.369,1.369,1.369,1.372,1.372,1.372,1.374,1.377,1.38,1.383,1.385,1.385,1.388,1.391,1.394,1.397,1.4,1.402,1.405,1.405,1.408,1.411,1.411,1.411,1.411,1.411,1.411,1.411,1.408,1.405,1.405,1.405,1.405,1.405,1.408,1.408,1.411,1.411,1.417,1.423,1.432,1.435,1.447,1.459,1.465,1.475,1.491,1.507,1.514,1.53,1.544,1.555,1.573,1.58,1.591,1.602,0,0,0,0,0,0,1.664,1.676,1.684,1.697,1.709,1.731,1.74,1.758,1.785,1.79,1.799,1.813,1.818,1.833,1.852,1.867,1.878,1.893,1.909,1.92,1.936,1.941,1.941,1.941,1.947,1.952,1.952,1.963,1.969,1.98,1.98,1.992,1.998,2.003,2.015,2.015,2.021,2.027,2.033,2.033,2.039,2.039,2.045,2.045,2.045,2.051,2.051,2.057,2.057,2.064,2.064,2.07,2.07,2.076,2.076,2.076,2.082,2.082,2.089,2.089,2.089,2.095,2.095,2.095,2.095,2.095,2.095,2.095,2.095,2.089,2.089,2.089,2.089,2.089,2.089,2.095,2.095,2.095,2.102,2.102,2.108,2.108,2.114,2.114,2.114,2.121,2.121,2.121,2.121,2.121,2.121,2.114,2.114,2.114,2.108,2.108,2.108,2.108,2.108,2.114,2.114,2.121,2.128,2.134,2.141,2.147,2.154,2.161,2.168,2.175,2.182,2.189,2.189,2.196,2.203,2.203,2.203,2.203,2.203,2.203,2.196,2.196,2.196,2.189,2.182,2.182,2.182,2.175,2.175,2.168,2.161,2.161,2.154,2.147,2.141,2.128,2.121,2.114,2.108,2.102,2.089,2.089,2.076,2.07,2.07,2.064,2.057,2.051,2.051,2.051,2.051,2.051,2.051,2.057,2.057,2.064,2.064,2.076,2.089,2.102,2.114,2.134,2.147,2.161,2.175,2.203,2.21,2.217,2.224,2.231,2.217,2.203,2.189,2.161,2.141,2.121,2.095,2.07,2.045,2.039,2.033,2.033,2.027,2.021,2.009,2.009,1.998,1.992,1.986,1.975,1.963,1.958,1.952,1.947,1.947,1.952,1.947,1.947,1.941,1.941,1.936,1.936,1.936,1.958,1.98,2.021,2.076,2.141,2.224,0,0,0,0,0,0,0,0,0,0,0,1.718,1.718,1.714,1.718,1.718,1.714,1.705,1.701,1.697,1.697,1.693,1.693,1.693,1.705,1.731,1.744,1.758,1.799,1.872,0,0,0,0,0,0,0,0,0,0,0,0,0,0,0,0,0,0,1.548,1.541,1.537,1.534,1.53,1.527,1.527,1.524,1.52,1.517,1.514,1.514,1.514,1.51,1.51,1.51,1.507,1.507,0,2.517,2.517,2.526,2.536,2.545,2.555,2.564,2.574,2.583,2.593,2.603,2.603,2.603,2.603,2.603,2.593,2.583,2.564,2.555,2.545,2.536,2.536,0,0,0,0,0,0,0,0,0,0,0,0,1.287,1.287,1.289,1.289,1.289,1.287,1.287,1.287,1.287,1.287,1.284,1.284,1.284,1.284,0,0,0,0,2.217,2.217,2.217,2.224,2.224,2.224,2.224,2.224,2.231,2.231,2.231,2.231,2.231,2.231,2.231,2.224,2.217,2.217,2.21,2.203,2.196,2.189,2.182
1.497,1.504,1.507,1.514,1.517,1.517,1.52,1.52,1.524,1.527,1.53,1.534,1.537,1.548,1.558,1.573,1.583,1.594,1.609,1.625,1.636,1.652,1.664,1.672,1.684,1.693,1.701,1.705,0,1.705,0,0,1.688,1.68,1.664,1.648,0,1.613,1.594,1.576,1.558,1.541,1.53,1.514,1.507,1.494,1.484,1.478,1.472,1.465,1.459,1.453,1.447,1.441,1.438,1.432,1.429,1.426,1.423,1.423,1.42,1.417,1.417,1.414,1.414,1.414,1.414,1.414,1.411,1.411,1.411,1.408,1.408,1.405,1.405,1.405,1.402,1.402,1.4,1.397,1.394,1.394,1.391,1.391,1.388,1.388,1.385,1.385,1.383,1.383,1.38,1.377,1.377,1.374,1.374,1.372,1.372,1.369,1.369,1.366,1.366,1.366,1.366,1.366,1.363,1.363,1.363,1.363,1.366,1.366,1.369,1.369,1.372,1.372,1.372,1.372,1.374,1.374,1.374,1.374,1.374,1.374,1.374,1.374,1.374,1.374,1.374,1.374,1.374,1.374,1.374,1.374,1.372,1.372,1.372,1.372,1.372,1.372,1.369,1.372,1.372,1.372,1.372,1.372,1.372,1.374,1.374,1.377,1.377,1.38,1.383,1.385,1.388,1.391,1.394,1.397,1.4,1.402,1.405,1.405,1.408,1.411,1.414,1.414,1.417,1.42,1.42,1.42,1.417,1.42,1.423,1.426,1.429,1.432,1.435,1.441,1.447,1.453,1.456,1.456,1.462,1.465,1.472,1.478,1.484,1.494,1.507,1.514,1.527,1.544,1.555,1.569,1.583,1.598,0,0,1.632,1.648,1.656,1.668,1.68,1.688,1.697,1.709,1.718,1.731,1.74,1.753,1.767,1.78,1.794,1.813,1.828,1.842,1.852,1.862,1.878,1.878,1.888,1.893,1.914,1.914,1.914,1.92,1.92,1.925,1.93,1.93,1.93,1.936,1.936,1.941,1.947,1.958,1.958,1.969,1.975,1.98,1.98,1.986,1.992,1.998,1.998,1.998,2.003,2.009,2.009,2.009,2.015,2.015,2.021,2.021,2.027,2.027,2.033,2.033,2.039,2.039,2.045,2.045,2.045,2.051,2.051,2.057,2.057,2.057,2.064,2.064,2.064,2.064,2.064,2.064,2.064,2.064,2.057,2.057,2.057,2.057,2.057,2.057,2.057,2.057,2.064,2.064,2.07,2.076,2.076,2.082,2.082,2.082,2.082,2.089,2.089,2.089,2.089,2.089,2.082,2.082,2.082,2.082,2.076,2.082,2.082,2.082,2.089,2.095,2.095,2.102,2.108,2.114,2.121,2.128,2.134,2.141,2.147,2.154,2.161,2.168,2.175,2.175,2.182,2.182,2.182,2.182,2.175,2.175,2.175,2.168,2.161,2.161,2.154,2.154,2.147,2.141,2.141,2.141,2.134,2.128,2.121,2.114,2.108,2.102,2.095,2.082,2.076,2.07,2.064,2.057,2.051,2.045,2.039,2.033,2.033,2.027,2.027,2.027,2.027,2.027,2.033,2.027,2.027,2.033,2.039,2.045,2.057,2.064,2.076,2.089,2.095,2.114,2.121,2.134,2.134,2.147,2.141,2.134,2.121,2.114,2.095,2.082,2.07,2.051,2.033,2.021,2.015,2.015,2.015,2.009,2.003,2.003,1.992,1.992,1.986,1.98,1.969,1.963,1.952,1.947,1.947,1.947,1.952,1.947,1.947,1.941,1.941,1.936,1.936,1.936,1.958,1.98,2.015,2.076,2.134,2.217,0,0,0,0,0,0,0,0,0,0,0,1.744,1.714,1.714,1.714,1.714,1.714,1.705,1.701,1.697,1.697,1.693,1.693,1.693,1.714,1.749,1.78,1.799,0,0,0,0,0,0,0,0,2.593,0,0,0,0,0,0,0,0,0,0,0,1.548,1.544,1.541,1.534,1.534,1.53,1.527,1.524,1.524,1.52,1.517,1.514,1.514,1.51,1.51,1.51,1.507,1.507,0,0,2.536,2.536,2.536,2.545,2.555,2.564,2.574,2.583,2.583,2.593,2.593,2.593,2.593,2.583,2.574,2.564,2.545,2.536,2.536,2.526,2.517,0,0,0,0,0,0,0,0,0,0,0,0,1.287,1.289,1.289,1.289,1.289,1.287,1.287,1.289,1.287,1.287,1.287,1.284,1.284,1.284,0,0,0,0,2.21,2.21,2.21,2.217,2.217,2.21,2.217,2.217,2.217,2.224,2.224,2.224,2.224,2.224,2.224,2.217,2.217,2.21,2.203,2.196,2.196,2.189,2.182
1.517,1.52,1.524,1.53,1.527,1.53,1.53,1.534,1.537,1.544,1.548,1.551,1.562,1.573,1.583,1.602,1.613,1.628,1.64,1.656,1.664,1.68,1.693,1.697,1.709,1.718,1.722,1.727,1.727,1.727,1.722,1.722,1.718,1.705,1.697,1.68,1.664,1.644,1.628,1.609,1.591,1.573,1.555,1.541,1.53,1.517,1.504,1.497,1.484,1.475,1.468,1.462,1.459,1.45,1.444,1.441,1.435,1.432,1.429,1.426,1.426,1.426,1.423,1.423,1.42,1.42,1.417,1.417,1.417,1.414,1.414,1.414,1.411,1.411,1.408,1.408,1.405,1.405,1.402,1.402,1.4,1.397,1.397,1.394,1.391,1.391,1.391,1.388,1.388,1.385,1.385,1.383,1.383,1.38,1.38,1.377,1.374,1.374,1.372,1.372,1.372,1.369,1.369,1.369,1.369,1.369,1.369,1.369,1.372,1.372,1.374,1.374,1.374,1.377,1.377,1.377,1.377,1.377,1.38,1.38,1.38,1.38,1.38,1.38,1.38,1.38,1.38,1.38,1.38,1.38,1.377,1.377,1.377,1.377,1.377,1.374,1.374,1.374,1.374,1.374,1.374,1.374,1.374,1.377,1.377,1.377,1.38,1.383,1.383,1.385,1.388,1.391,1.394,1.397,1.4,1.402,1.405,1.408,1.411,1.411,1.417,1.42,1.423,1.423,1.426,1.426,1.426,1.429,1.435,1.444,1.45,1.456,1.462,1.468,1.478,1.491,1.494,1.5,1.504,1.507,1.51,1.517,1.52,1.53,1.534,1.544,1.555,1.565,1.58,1.594,1.609,0,0,1.652,1.664,1.684,1.693,1.705,1.718,1.727,1.74,1.749,1.762,1.776,1.78,1.79,1.799,1.804,1.818,1.833,1.847,1.862,1.867,1.878,1.888,1.898,1.904,1.909,1.914,1.914,1.92,1.92,1.92,1.92,1.92,1.92,1.92,1.92,1.92,1.92,1.925,1.936,1.936,1.941,1.941,1.952,1.952,1.958,1.958,1.963,1.963,1.969,1.969,1.969,1.975,1.98,1.98,1.98,1.986,1.986,1.992,1.998,1.998,2.003,2.003,2.009,2.009,2.015,2.015,2.015,2.021,2.021,2.021,2.021,2.021,2.021,2.027,2.027,2.027,2.027,2.027,2.027,2.027,2.027,2.027,2.027,2.027,2.027,2.027,2.027,2.027,2.027,2.033,2.033,2.039,2.039,2.045,2.045,2.045,2.051,2.051,2.051,2.051,2.051,2.051,2.051,2.051,2.051,2.051,2.051,2.051,2.051,2.051,2.057,2.064,2.064,2.07,2.076,2.082,2.089,2.095,2.102,2.108,2.114,2.121,2.128,2.134,2.141,2.141,2.147,2.147,2.154,2.154,2.147,2.147,2.147,2.141,2.134,2.134,2.134,2.128,2.128,2.121,2.121,2.114,2.114,2.114,2.108,2.102,2.095,2.089,2.076,2.07,2.064,2.057,2.045,2.045,2.033,2.027,2.021,2.021,2.015,2.009,2.009,2.003,2.003,2.003,2.003,2.003,2.003,2.003,2.009,2.009,2.009,2.009,2.015,2.027,2.033,2.033,2.045,2.051,2.057,2.064,2.07,2.07,2.064,2.057,2.051,2.045,2.033,2.027,2.021,2.009,1.998,1.998,1.992,1.992,1.986,1.986,1.98,1.986,1.98,1.975,1.975,1.963,1.958,1.952,1.947,1.947,1.947,1.952,1.947,1.947,1.941,1.936,1.936,1.936,1.936,1.958,1.98,2.021,2.07,0,0,0,0,0,0,0,0,0,0,0,0,0,1.758,1.727,1.714,1.714,1.714,1.714,1.705,1.697,1.697,1.697,1.697,1.697,1.701,1.722,1.758,1.837,0,0,2.121,2.353,2.508,2.536,2.545,2.555,2.564,2.564,2.564,2.564,2.555,2.545,2.536,0,0,0,0,0,0,0,0,1.544,1.537,1.537,1.534,1.527,1.527,1.524,1.52,1.517,1.51,1.51,1.507,1.507,1.507,1.504,0,0,0,0,2.555,2.555,2.555,2.555,2.564,2.574,2.574,2.583,2.583,2.583,2.583,2.574,2.564,2.555,2.545,2.526,2.517,2.517,2.499,2.499,0,0,0,0,0,0,0,0,0,0,0,0,0,0,1.292,1.289,1.289,1.289,1.289,1.287,1.287,1.287,1.287,1.287,1.287,1.284,1.284,1.287,0,0,2.196,2.203,2.21,2.21,2.21,2.21,2.21,2.217,2.217,2.217,2.217,2.217,2.217,2.217,2.217,2.21,2.21,2.203,2.203,2.196,2.196,2.189,2.182
1.541,1.537,1.544,1.544,1.544,1.548,1.551,1.555,1.558,1.565,1.573,1.58,1.591,1.598,1.613,1.625,1.64,1.648,1.664,1.676,1.684,1.701,1.705,1.718,1.722,1.731,1.735,1.74,1.74,1.74,1.735,1.735,1.735,1.722,1.714,1.701,1.684,1.668,1.656,1.636,1.617,1.598,1.583,1.565,1.551,1.537,1.524,1.514,1.504,1.494,1.484,1.478,1.468,1.459,1.456,1.45,1.444,1.438,1.438,1.435,1.432,1.432,1.429,1.429,1.429,1.426,1.426,1.423,1.423,1.423,1.42,1.417,1.417,1.414,1.414,1.414,1.411,1.408,1.405,1.405,1.405,1.402,1.4,1.397,1.397,1.397,1.397,1.394,1.394,1.391,1.391,1.388,1.388,1.385,1.385,1.383,1.383,1.38,1.38,1.377,1.377,1.374,1.374,1.374,1.372,1.372,1.374,1.374,1.374,1.377,1.377,1.38,1.38,1.38,1.38,1.383,1.383,1.383,1.383,1.385,1.385,1.385,1.385,1.385,1.385,1.385,1.385,1.385,1.385,1.383,1.383,1.383,1.383,1.38,1.38,1.38,1.38,1.377,1.377,1.377,1.377,1.38,1.38,1.38,1.383,1.383,1.385,1.388,1.388,1.391,1.394,1.397,1.4,1.402,1.405,1.408,1.411,1.414,1.417,1.42,1.423,1.426,1.429,1.432,1.432,1.438,1.441,1.45,1.459,1.472,1.484,1.494,1.504,1.517,1.527,1.537,1.541,1.548,1.555,1.558,1.562,1.565,1.573,1.58,1.583,1.594,1.606,0,0,1.648,1.664,1.68,1.701,1.709,1.718,1.735,1.749,1.758,1.767,1.776,1.785,1.794,1.804,1.813,1.818,1.823,1.833,1.842,1.847,1.857,1.862,1.872,1.878,1.883,1.888,1.893,1.898,1.898,1.904,1.904,1.909,1.909,1.909,1.909,1.909,1.909,1.909,1.909,1.909,1.914,1.914,1.914,1.92,1.92,1.925,1.925,1.93,1.93,1.936,1.936,1.941,1.941,1.941,1.947,1.947,1.952,1.952,1.958,1.958,1.963,1.963,1.969,1.969,1.969,1.975,1.98,1.98,1.986,1.986,1.986,1.986,1.986,1.986,1.986,1.992,1.992,1.992,1.992,1.992,1.992,1.992,1.998,1.998,1.998,1.998,1.992,1.992,1.992,1.992,1.992,1.992,1.998,1.998,2.003,2.003,2.009,2.009,2.009,2.015,2.015,2.015,2.015,2.015,2.015,2.015,2.021,2.021,2.021,2.021,2.021,2.021,2.021,2.027,2.027,2.033,2.039,2.039,2.045,2.051,2.064,2.07,2.076,2.089,2.095,2.102,2.108,2.114,2.128,2.128,2.134,2.141,2.141,2.134,2.134,2.134,2.128,2.121,2.114,2.108,2.108,2.102,2.095,2.095,2.095,2.095,2.095,2.089,2.089,2.082,2.076,2.076,2.064,2.057,2.051,2.039,2.033,2.021,2.015,2.009,2.003,1.998,1.992,1.986,1.986,1.98,1.98,1.98,1.98,1.98,1.98,1.98,1.98,1.98,1.986,1.986,1.986,1.992,1.986,1.992,1.992,1.998,2.003,2.003,2.003,2.003,2.003,1.998,1.998,1.992,1.986,1.98,1.98,1.975,1.975,1.969,1.969,1.969,1.969,1.963,1.963,1.963,1.963,1.958,1.958,1.952,1.947,1.941,1.941,1.941,1.941,1.947,1.947,1.941,1.941,1.936,1.936,1.93,1.936,1.958,1.986,2.021,2.07,2.128,2.196,2.275,2.378,2.446,0,0,0,0,0,0,0,0,0,1.722,1.709,1.709,1.714,1.709,1.701,1.697,1.697,1.697,1.697,1.697,1.705,1.727,1.762,1.818,0,2.051,2.161,2.353,2.508,2.536,2.545,2.545,2.545,2.545,2.536,2.536,2.517,2.499,2.499,2.49,0,0,0,0,0,0,0,1.544,1.541,1.537,1.534,1.53,1.527,1.524,1.52,1.517,1.51,1.51,1.504,1.504,1.504,1.5,0,0,2.574,2.574,2.564,2.564,2.574,2.564,2.574,2.564,2.574,2.574,2.574,2.574,2.574,2.555,2.545,2.536,2.526,2.517,2.499,2.499,2.49,2.49,0,0,0,0,0,0,0,0,0,0,0,0,0,0,1.294,1.292,1.292,1.292,1.289,1.289,1.289,1.289,1.287,1.287,1.287,1.287,1.287,1.287,0,0,2.189,2.196,2.196,2.203,2.203,2.203,2.203,2.21,2.21,2.217,2.217,2.217,2.21,2.21,2.21,2.21,2.203,2.203,2.196,2.196,2.196,2.189,2.189
1.569,1.569,1.573,1.576,1.573,1.573,1.58,1.58,1.583,1.591,1.594,1.602,1.613,1.621,1.636,1.644,1.652,1.668,1.676,1.688,1.701,1.714,1.718,1.731,1.735,1.74,1.744,1.744,1.744,1.744,1.744,1.744,1.74,1.735,1.722,1.714,1.697,1.684,1.672,1.652,1.632,1.617,1.606,1.587,1.576,1.558,1.544,1.534,1.524,1.514,1.504,1.494,1.484,1.478,1.472,1.465,1.456,1.45,1.447,1.441,1.441,1.438,1.435,1.435,1.435,1.435,1.432,1.432,1.429,1.426,1.426,1.423,1.42,1.42,1.417,1.414,1.414,1.414,1.411,1.408,1.408,1.408,1.405,1.402,1.402,1.402,1.402,1.4,1.4,1.4,1.4,1.397,1.397,1.394,1.394,1.391,1.388,1.388,1.385,1.385,1.383,1.383,1.38,1.38,1.377,1.377,1.377,1.38,1.38,1.38,1.383,1.383,1.385,1.385,1.385,1.388,1.388,1.388,1.388,1.388,1.391,1.391,1.391,1.391,1.391,1.391,1.391,1.391,1.391,1.388,1.388,1.388,1.388,1.385,1.385,1.385,1.383,1.383,1.383,1.383,1.383,1.383,1.385,1.385,1.388,1.388,1.391,1.394,1.397,1.4,1.402,1.405,1.408,1.411,1.411,1.417,1.417,1.42,1.426,1.426,1.429,1.432,1.435,1.441,1.447,1.456,1.468,1.481,1.494,1.51,1.527,1.544,1.555,1.569,1.58,0,0,1.598,1.606,1.609,0,1.617,1.617,0,0,0,1.652,1.664,1.676,1.693,1.709,1.727,1.744,1.758,1.767,1.776,1.79,1.799,1.804,1.813,1.818,1.823,1.833,1.837,1.842,1.842,1.847,1.847,1.852,1.857,1.862,1.867,1.867,1.872,1.878,1.883,1.883,1.888,1.888,1.888,1.893,1.893,1.893,1.893,1.893,1.893,1.893,1.893,1.893,1.888,1.893,1.893,1.898,1.898,1.898,1.904,1.909,1.909,1.909,1.914,1.914,1.914,1.914,1.92,1.92,1.925,1.925,1.93,1.936,1.936,1.941,1.941,1.941,1.947,1.952,1.952,1.952,1.958,1.958,1.958,1.958,1.958,1.958,1.958,1.963,1.958,1.958,1.958,1.958,1.958,1.958,1.958,1.958,1.958,1.958,1.958,1.958,1.963,1.963,1.963,1.963,1.969,1.969,1.969,1.969,1.975,1.975,1.98,1.98,1.98,1.98,1.98,1.98,1.986,1.986,1.986,1.986,1.986,1.992,1.992,1.992,1.992,1.998,2.003,2.003,2.009,2.015,2.015,2.021,2.027,2.039,2.045,2.057,2.064,2.076,2.082,2.095,2.102,2.108,2.108,2.108,2.108,2.108,2.102,2.095,2.095,2.089,2.082,2.07,2.07,2.07,2.064,2.064,2.07,2.064,2.057,2.051,2.051,2.051,2.045,2.039,2.033,2.027,2.021,2.015,2.009,1.998,1.992,1.98,1.975,1.975,1.969,1.963,1.963,1.958,1.958,1.958,1.958,1.958,1.958,1.958,1.958,1.958,1.963,1.963,1.963,1.963,1.963,1.963,1.963,1.958,1.952,1.947,1.947,1.947,1.947,1.941,1.936,1.936,1.936,1.941,1.941,1.941,1.941,1.941,1.941,1.947,1.947,1.947,1.947,1.947,1.947,1.947,1.941,1.936,1.936,1.93,1.93,1.93,1.936,1.941,1.941,1.936,1.936,1.936,1.936,1.936,1.936,1.963,1.992,2.039,0,2.168,2.238,2.314,2.42,2.472,2.499,2.517,2.517,2.517,2.437,0,0,0,0,0,1.709,1.709,1.709,1.709,1.701,1.697,1.697,1.697,1.697,1.697,1.705,1.731,1.758,1.804,0,2.108,2.217,2.472,2.536,2.545,2.545,2.545,2.536,2.526,2.526,2.517,2.499,2.481,2.472,2.463,2.454,0,0,0,0,0,0,1.544,1.541,1.537,1.534,1.534,1.527,1.524,1.52,1.514,1.51,1.507,1.504,1.5,1.5,1.497,0,0,2.603,2.593,2.593,2.593,2.583,2.583,2.583,2.583,2.583,2.583,2.574,2.574,2.555,2.545,2.526,2.517,2.499,2.499,2.49,2.481,2.472,2.472,0,0,0,0,0,0,0,0,0,0,0,0,0,0,0,1.299,1.294,1.294,1.292,1.289,1.289,1.289,1.287,1.287,1.287,1.287,1.289,1.289,0,0,2.189,2.189,2.196,2.196,2.203,2.203,2.203,2.21,2.21,2.21,2.21,2.21,2.203,2.203,2.203,2.203,2.203,2.203,2.196,2.196,2.196,2.189,2.189
1.591,1.591,1.594,1.591,1.591,1.594,1.598,1.598,1.602,1.609,1.613,1.621,1.628,1.64,1.644,1.656,1.668,1.676,1.688,1.697,1.701,1.714,1.722,1.727,1.731,1.735,1.735,1.735,1.735,1.735,1.731,1.731,1.727,1.722,1.714,1.705,1.697,1.684,1.672,1.66,1.648,1.636,1.617,1.606,1.594,1.58,1.565,1.555,1.544,1.534,1.527,1.517,1.507,1.5,1.494,1.487,1.481,1.475,1.468,1.462,1.456,1.453,1.45,1.447,1.447,1.441,1.438,1.435,1.435,1.435,1.432,1.429,1.429,1.426,1.423,1.42,1.42,1.417,1.417,1.414,1.414,1.411,1.411,1.411,1.411,1.408,1.408,1.408,1.408,1.408,1.405,1.405,1.402,1.402,1.402,1.4,1.397,1.397,1.394,1.394,1.391,1.388,1.388,1.385,1.385,1.385,1.383,1.385,1.385,1.385,1.385,1.388,1.388,1.391,1.391,1.391,1.394,1.394,1.394,1.394,1.394,1.394,1.397,1.397,1.397,1.397,1.397,1.397,1.397,1.394,1.394,1.394,1.394,1.391,1.391,1.391,1.388,1.388,1.388,1.388,1.388,1.388,1.391,1.391,1.394,1.397,1.4,1.402,1.405,1.408,1.411,1.414,1.417,1.417,1.423,1.423,1.426,1.429,1.432,1.438,1.444,1.453,1.459,1.468,1.481,1.494,1.51,1.53,1.544,1.562,1.576,0,0,1.617,1.625,1.632,1.64,1.644,1.648,1.652,1.652,1.656,1.664,1.668,1.676,1.684,1.693,1.701,1.718,1.731,1.749,1.758,1.771,1.785,1.794,1.804,1.808,1.813,1.818,1.823,1.823,1.823,1.828,1.828,1.833,1.833,1.833,1.837,1.842,1.847,1.847,1.852,1.857,1.857,1.862,1.867,1.867,1.872,1.872,1.872,1.872,1.878,1.872,1.872,1.872,1.872,1.872,1.872,1.872,1.872,1.872,1.878,1.878,1.878,1.883,1.883,1.888,1.888,1.888,1.888,1.893,1.893,1.893,1.898,1.898,1.898,1.904,1.904,1.909,1.914,1.92,1.92,1.92,1.925,1.93,1.93,1.93,1.936,1.936,1.936,1.936,1.936,1.936,1.936,1.936,1.936,1.93,1.93,1.93,1.93,1.93,1.93,1.93,1.93,1.93,1.93,1.93,1.93,1.936,1.936,1.936,1.936,1.936,1.936,1.941,1.941,1.941,1.941,1.941,1.947,1.947,1.947,1.947,1.947,1.952,1.958,1.958,1.958,1.958,1.963,1.963,1.969,1.975,1.975,1.975,1.98,1.986,1.986,1.992,1.998,2.003,2.009,2.015,2.027,2.033,2.033,2.039,2.051,2.051,2.051,2.051,2.051,2.051,2.045,2.045,2.039,2.033,2.027,2.015,2.021,2.015,2.009,2.009,2.009,2.003,2.003,2.003,2.009,2.003,2.003,2.003,1.998,1.992,1.986,1.98,1.975,1.969,1.963,1.952,1.952,1.947,1.941,1.936,1.936,1.936,1.936,1.936,1.936,1.936,1.936,1.941,1.941,1.941,1.947,1.941,1.941,1.941,1.941,1.941,1.941,1.936,1.93,1.925,1.92,1.914,1.909,1.904,1.898,1.898,1.904,1.904,1.904,1.909,1.909,1.914,1.92,1.92,1.92,1.925,1.92,1.925,1.925,1.925,1.925,1.925,1.92,1.92,1.92,1.92,1.925,1.93,1.93,1.93,1.93,1.93,1.93,1.93,1.936,1.969,2.009,2.057,2.121,2.189,2.268,2.353,2.454,2.508,2.517,2.526,2.526,2.517,2.454,0,0,0,0,0,1.705,1.705,1.705,1.705,1.701,1.697,1.697,1.697,1.697,1.697,1.705,1.731,1.78,1.813,0,2.168,2.329,2.526,2.555,2.555,2.555,2.564,2.555,2.545,2.536,2.526,2.508,2.499,2.481,2.472,2.463,0,0,0,0,0,0,1.541,1.537,1.537,1.534,1.534,1.53,1.524,1.52,1.514,1.51,1.507,1.504,1.5,1.497,1.494,0,2.653,2.633,2.623,2.623,2.613,2.603,2.603,2.593,2.593,2.583,2.583,2.583,2.574,2.564,2.545,2.536,2.508,2.508,2.49,2.49,2.472,2.463,2.454,0,0,0,0,0,0,0,0,0,0,0,0,0,0,0,0,1.299,1.297,1.294,1.292,1.292,1.289,1.289,1.289,1.289,1.289,1.289,1.289,0,0,2.189,2.196,2.196,2.203,2.203,2.203,2.203,2.203,2.21,2.21,2.203,2.203,2.203,2.203,2.203,2.196,2.196,2.196,2.196,2.196,2.196,2.189,2.189
1.613,1.609,1.613,1.613,1.613,1.613,1.613,1.613,1.617,1.625,1.625,1.628,1.636,1.644,1.656,1.664,1.676,1.684,1.688,1.697,1.701,1.709,1.714,1.718,1.722,1.722,1.722,1.722,1.722,1.722,1.718,1.718,1.714,1.714,1.705,1.701,1.693,1.684,1.676,1.664,1.656,1.64,1.628,1.617,1.606,1.594,1.583,1.576,1.565,1.555,1.548,1.541,1.53,1.524,1.52,1.514,1.507,1.5,1.497,1.491,1.484,1.478,1.475,1.468,1.462,1.456,1.453,1.447,1.444,1.444,1.441,1.438,1.435,1.435,1.432,1.429,1.429,1.426,1.423,1.42,1.42,1.42,1.417,1.417,1.417,1.417,1.417,1.417,1.417,1.417,1.417,1.414,1.414,1.414,1.411,1.408,1.408,1.405,1.402,1.4,1.4,1.397,1.394,1.391,1.391,1.391,1.391,1.391,1.391,1.391,1.391,1.394,1.394,1.394,1.394,1.397,1.397,1.397,1.4,1.4,1.4,1.4,1.402,1.402,1.402,1.402,1.402,1.402,1.402,1.4,1.4,1.4,1.4,1.4,1.397,1.397,1.397,1.394,1.394,1.394,1.394,1.394,1.397,1.4,1.402,1.405,1.408,1.411,1.414,1.417,1.42,1.423,1.423,1.426,1.429,1.432,1.435,1.441,1.447,1.459,1.468,1.481,1.491,1.507,1.524,1.541,1.558,1.576,0,0,0,1.636,1.648,1.656,1.66,1.668,1.672,1.676,1.68,1.684,1.688,1.693,1.693,1.701,1.705,1.714,1.722,1.731,1.74,1.758,1.767,1.776,1.785,1.79,1.799,1.804,1.808,1.808,1.813,1.813,1.813,1.818,1.818,1.818,1.818,1.823,1.823,1.823,1.828,1.833,1.837,1.842,1.842,1.842,1.847,1.852,1.852,1.857,1.857,1.857,1.857,1.852,1.857,1.857,1.852,1.852,1.852,1.852,1.852,1.852,1.852,1.857,1.857,1.862,1.862,1.867,1.867,1.867,1.872,1.872,1.872,1.872,1.872,1.878,1.878,1.878,1.878,1.883,1.888,1.888,1.893,1.898,1.904,1.904,1.904,1.909,1.914,1.914,1.914,1.914,1.914,1.914,1.914,1.914,1.909,1.909,1.909,1.909,1.909,1.909,1.909,1.909,1.904,1.904,1.904,1.904,1.904,1.904,1.904,1.904,1.904,1.909,1.904,1.904,1.909,1.909,1.909,1.909,1.909,1.909,1.914,1.914,1.914,1.914,1.92,1.925,1.925,1.925,1.93,1.93,1.936,1.941,1.941,1.947,1.947,1.947,1.952,1.958,1.958,1.963,1.963,1.969,1.975,1.98,1.992,1.992,1.998,1.998,1.998,1.998,1.998,2.003,1.998,1.998,1.992,1.986,1.986,1.98,1.969,1.969,1.963,1.963,1.958,1.952,1.952,1.952,1.952,1.952,1.958,1.958,1.958,1.958,1.958,1.952,1.952,1.947,1.941,1.936,1.93,1.925,1.92,1.914,1.909,1.914,1.909,1.914,1.914,1.914,1.92,1.92,1.92,1.92,1.925,1.925,1.925,1.925,1.925,1.925,1.92,1.92,1.909,1.909,1.898,1.893,1.888,1.883,1.878,1.878,1.872,1.872,1.872,1.872,1.878,1.878,1.883,1.883,1.888,1.893,1.898,1.898,1.904,1.904,1.909,1.909,1.909,1.904,1.904,1.904,1.904,1.909,1.914,1.914,1.914,1.914,1.92,1.925,1.925,1.93,1.969,2.009,2.07,0,2.217,2.298,2.378,2.463,2.517,2.526,2.526,2.536,2.526,2.526,2.42,0,0,0,0,1.705,1.701,1.705,1.705,1.701,1.697,1.697,1.697,1.701,1.701,1.718,1.731,1.78,1.813,2.082,2.545,2.545,2.555,2.574,2.574,2.574,2.574,2.574,2.564,2.555,2.536,2.517,2.508,2.499,2.49,2.472,0,0,0,0,0,0,1.541,1.537,1.537,1.534,1.534,1.53,1.524,1.52,1.514,1.51,1.504,1.5,1.497,1.494,1.491,0,2.684,2.664,2.643,2.643,2.633,2.633,2.623,2.613,2.603,2.603,2.603,2.593,2.593,2.574,2.555,2.545,2.517,2.508,2.499,2.481,2.463,2.454,2.454,0,0,0,0,0,0,0,0,0,0,0,0,0,0,0,0,1.306,1.302,1.299,1.294,1.294,1.292,1.292,1.292,1.292,1.292,0,0,0,2.196,2.203,2.203,2.203,2.21,2.21,2.21,2.21,2.21,2.21,2.21,2.21,2.203,2.203,2.203,2.196,2.196,2.196,2.196,2.196,2.196,2.189,2.189,2.189
